ncols 366
nrows  32
xllcorner  1194785
yllcorner  -577021
cellsize  25
nodata_value  -9.999000e+03
122.827 122.802 122.711 122.751 122.804 122.788 122.717 122.665 122.709 122.675 122.724 122.709 122.669 122.750 122.809 122.766 122.724 122.791 122.735 122.800 122.823 122.781 122.850 122.821 122.831 122.814 122.758 122.744 122.784 122.747 122.771 122.813 122.859 122.909 122.906 122.878 122.873 122.831 122.793 122.773 122.715 122.666 122.701 122.751 122.811 122.842 122.767 122.009 120.309 120.061 120.121 120.627 122.229 122.757 122.736 122.669 122.288 120.947 120.308 120.110 120.296 120.669 121.162 122.277 122.688 122.573 122.125 121.966 122.376 122.627 122.578 122.574 122.570 122.597 122.636 122.721 122.768 122.477 121.803 120.320 122.167 122.675 122.673 122.581 122.537 122.549 122.356 122.506 122.562 122.624 122.655 122.659 122.628 122.627 122.643 122.599 122.586 122.598 122.587 122.574 122.540 122.496 122.515 122.512 122.504 122.477 122.463 122.450 122.438 122.435 122.431 122.374 122.374 122.344 122.329 122.295 122.310 122.323 122.273 122.255 122.191 122.127 122.132 122.031 122.141 122.231 122.197 122.076 121.857 122.130 122.073 121.996 122.014 122.147 122.194 122.026 121.871 122.026 122.192 122.313 122.379 122.377 122.328 122.321 122.296 122.284 122.322 122.648 123.114 123.313 123.480 123.774 124.086 124.300 124.445 124.505 124.534 124.559 124.693 124.956 125.392 125.685 126.033 126.459 126.831 127.090 127.194 127.245 127.162 127.016 126.850 126.605 126.327 126.039 125.801 125.455 125.208 125.102 125.011 124.995 125.053 125.252 125.446 125.498 125.426 125.355 125.216 125.036 124.890 124.802 124.766 124.756 124.757 124.776 124.873 125.044 125.295 125.403 125.394 125.399 125.422 125.434 125.423 125.342 125.170 124.941 124.787 124.746 124.738 124.738 124.723 124.630 124.509 124.535 124.611 124.593 124.557 124.489 124.337 124.105 123.779 123.403 122.977 122.494 122.097 121.854 121.635 121.365 121.205 120.920 120.792 120.556 120.897 120.857 120.653 120.767 120.502 120.469 120.393 120.461 120.621 120.612 120.640 120.679 120.470 120.825 120.976 120.998 120.614 120.253 120.781 121.203 120.677 120.376 121.055 120.885 120.813 120.776 120.697 120.445 120.460 120.899 121.037 120.907 120.586 120.973 120.782 120.246 120.448 120.954 121.090 120.793 120.686 120.759 120.554 120.774 120.623 120.573 120.616 120.264 120.197 120.428 120.442 120.038 120.510 120.865 120.735 120.728 120.740 120.944 120.993 120.419 120.605 120.447 120.984 121.135 120.701 120.787 120.810 120.660 120.588 120.978 120.375 120.540 120.920 120.855 120.610 120.729 121.028 120.937 120.876 121.117 121.418 121.759 122.211 122.749 123.016 123.083 123.205 122.953 122.690 122.268 121.990 121.796 121.673 121.606 121.466 121.421 121.313 121.155 121.032 121.015 120.979 120.913 120.901 120.979 120.953 120.999 121.006 121.148 121.595 121.898 121.940 121.650 121.413 121.351 121.429 121.470 121.516 121.502 121.437 121.563 121.614 121.641 121.657 121.606 121.790 121.695 122.305 122.713 122.919 123.125 122.708 122.441 122.918 123.147
122.683 122.686 122.716 122.709 122.752 122.675 122.648 122.738 122.717 122.764 122.688 122.651 122.711 122.832 122.796 122.760 122.683 122.796 122.730 122.786 122.825 122.784 122.828 122.826 122.824 122.788 122.720 122.772 122.825 122.805 122.803 122.818 122.855 122.904 122.881 122.880 122.887 122.871 122.863 122.859 122.825 122.755 122.731 122.787 122.831 122.836 122.827 122.618 122.415 122.510 122.616 122.665 122.765 122.772 122.745 122.692 122.695 122.653 122.545 122.285 121.877 121.127 120.416 120.034 120.938 121.982 120.786 120.472 120.395 121.062 122.332 122.585 122.580 122.572 122.569 122.622 122.720 122.754 122.414 120.713 120.979 122.609 122.648 122.583 122.444 122.514 122.328 122.411 122.522 122.581 122.603 122.647 122.634 122.637 122.608 122.583 122.596 122.591 122.582 122.542 122.534 122.508 122.524 122.522 122.507 122.485 122.470 122.480 122.441 122.359 122.341 122.350 122.354 122.360 122.306 122.297 122.337 122.323 122.279 122.263 122.200 122.164 122.165 122.174 122.095 122.068 122.106 122.079 121.864 122.074 122.113 122.115 122.125 122.108 122.247 122.121 121.960 122.095 122.231 122.301 122.379 122.346 122.332 122.290 122.285 122.272 122.334 122.634 122.986 123.188 123.457 123.810 124.079 124.243 124.354 124.435 124.485 124.511 124.601 124.806 125.157 125.353 125.643 125.953 126.334 126.696 126.829 126.850 126.761 126.606 126.449 126.251 126.042 125.829 125.599 125.294 125.118 125.001 124.880 124.896 124.977 125.118 125.301 125.374 125.334 125.330 125.257 125.054 124.876 124.807 124.787 124.764 124.717 124.713 124.784 124.911 125.107 125.210 125.255 125.286 125.333 125.378 125.357 125.263 125.022 124.765 124.627 124.586 124.651 124.629 124.652 124.677 124.605 124.642 124.779 124.797 124.789 124.709 124.586 124.330 124.029 123.691 123.261 122.820 122.383 122.040 121.791 121.479 121.347 121.109 120.837 120.534 120.576 120.549 120.613 120.730 120.693 120.797 120.747 120.688 120.408 120.369 120.402 120.603 120.519 120.422 120.828 120.965 120.947 120.525 120.439 120.910 120.715 120.349 120.857 121.050 120.598 120.817 120.954 120.796 120.311 120.696 121.006 120.710 120.641 121.021 121.092 120.634 120.319 120.978 121.114 120.889 120.391 120.561 120.760 120.948 120.800 120.665 120.330 120.264 120.610 120.875 120.834 120.114 120.213 120.576 120.895 120.922 120.759 120.901 120.430 120.506 120.996 120.630 120.510 120.521 120.474 120.918 120.881 120.787 120.355 120.382 120.692 120.743 120.683 120.657 120.620 120.809 120.760 121.119 120.732 120.834 121.128 121.292 121.821 122.394 122.502 122.824 122.883 122.730 122.468 122.125 121.799 121.548 121.353 121.229 121.126 121.040 121.017 120.900 120.775 120.759 120.730 120.745 120.701 120.789 120.766 120.957 120.967 121.040 121.190 121.466 121.620 121.303 121.136 121.283 121.440 121.466 121.458 121.527 121.825 121.631 121.514 121.539 121.481 121.461 121.504 121.617 121.770 122.400 122.802 123.079 123.397 122.878 122.728 122.828
122.804 122.787 122.775 122.732 122.638 122.661 122.751 122.761 122.720 122.776 122.719 122.734 122.744 122.808 122.756 122.791 122.695 122.817 122.728 122.762 122.809 122.832 122.834 122.800 122.778 122.728 122.701 122.774 122.822 122.813 122.826 122.816 122.825 122.852 122.863 122.859 122.863 122.871 122.875 122.877 122.862 122.857 122.848 122.866 122.894 122.872 122.836 122.778 122.782 122.823 122.825 122.799 122.769 122.764 122.744 122.724 122.695 122.706 122.677 122.632 122.615 122.565 122.373 121.660 120.508 120.164 120.272 121.598 122.353 121.157 120.589 121.414 122.547 122.575 122.557 122.553 122.631 122.679 122.402 121.925 120.356 122.274 122.547 122.541 122.335 122.326 122.194 122.438 122.516 122.559 122.548 122.597 122.613 122.593 122.628 122.628 122.600 122.609 122.613 122.581 122.574 122.549 122.525 122.528 122.508 122.464 122.469 122.481 122.458 122.411 122.404 122.413 122.370 122.371 122.298 122.278 122.319 122.329 122.214 122.249 122.304 122.233 122.222 122.191 122.134 122.082 122.109 122.150 122.016 121.980 122.125 122.029 122.083 122.141 122.217 122.138 121.972 122.079 122.210 122.288 122.346 122.355 122.368 122.311 122.289 122.265 122.326 122.594 122.811 123.030 123.358 123.709 123.984 124.158 124.263 124.292 124.311 124.391 124.491 124.647 124.898 125.018 125.287 125.548 125.843 126.196 126.368 126.396 126.273 126.129 125.930 125.801 125.672 125.500 125.309 125.132 125.006 124.906 124.739 124.742 124.902 125.036 125.148 125.225 125.255 125.272 125.252 125.135 124.932 124.898 124.926 124.833 124.702 124.666 124.739 124.777 124.846 124.918 124.959 125.062 125.134 125.186 125.186 125.102 124.893 124.683 124.519 124.450 124.415 124.468 124.572 124.690 124.808 124.875 124.904 124.931 124.914 124.841 124.726 124.450 124.135 123.800 123.431 123.022 122.621 122.251 121.893 121.528 121.326 121.155 120.889 120.643 120.731 120.834 120.699 120.404 120.635 120.607 120.496 120.397 120.506 120.778 120.816 121.034 121.026 120.633 120.209 120.639 120.719 120.510 120.690 120.983 120.881 120.593 120.891 120.974 120.753 120.993 121.073 120.752 120.813 120.363 120.950 120.667 120.919 120.964 121.130 121.007 120.303 120.482 120.510 120.206 120.248 120.856 120.701 120.970 120.963 120.850 120.476 120.388 120.983 120.996 120.732 120.160 120.420 120.174 120.499 120.550 120.395 120.684 120.771 120.541 121.005 120.876 120.973 120.759 120.418 120.880 120.682 120.787 120.489 120.299 120.636 120.789 120.594 120.457 120.487 120.527 120.742 120.873 120.976 120.912 120.813 121.005 121.201 121.637 122.077 122.432 122.456 122.453 122.298 121.941 121.636 121.366 121.027 120.820 120.692 120.813 120.796 120.804 120.739 120.708 120.634 120.675 120.808 120.761 120.827 120.840 120.858 121.034 121.105 121.206 121.036 120.910 121.673 121.745 121.565 121.489 121.696 121.579 121.397 121.830 121.528 121.452 121.420 121.414 121.424 121.519 121.755 121.807 122.255 123.160 123.490 123.376 122.834 122.816
122.793 122.773 122.751 122.699 122.691 122.737 122.759 122.697 122.707 122.746 122.715 122.799 122.796 122.798 122.794 122.765 122.668 122.768 122.670 122.736 122.798 122.806 122.783 122.755 122.764 122.743 122.680 122.789 122.821 122.815 122.810 122.817 122.816 122.828 122.837 122.840 122.825 122.837 122.857 122.864 122.832 122.834 122.852 122.879 122.895 122.858 122.827 122.842 122.849 122.849 122.840 122.823 122.791 122.759 122.748 122.747 122.738 122.711 122.709 122.690 122.645 122.626 122.571 121.647 121.163 121.641 121.547 122.579 122.571 122.405 122.219 120.745 120.771 121.648 122.569 122.534 122.444 122.339 122.564 122.495 120.587 120.848 122.019 122.140 122.066 122.130 122.333 122.425 122.527 122.546 122.566 122.588 122.608 122.617 122.629 122.636 122.644 122.637 122.626 122.600 122.590 122.566 122.541 122.539 122.527 122.520 122.500 122.492 122.490 122.422 122.404 122.436 122.366 122.326 122.289 122.290 122.284 122.258 122.292 122.283 122.216 122.202 122.123 122.062 122.063 121.988 122.008 122.148 122.088 121.960 122.095 121.989 122.120 122.169 122.184 122.160 121.994 122.031 122.210 122.278 122.338 122.358 122.354 122.288 122.306 122.270 122.338 122.542 122.713 122.957 123.274 123.532 123.762 123.958 124.103 124.143 124.141 124.181 124.295 124.463 124.635 124.632 125.020 125.252 125.478 125.725 125.876 125.926 125.775 125.615 125.359 125.235 125.237 125.109 124.971 124.856 124.736 124.681 124.525 124.505 124.688 124.843 124.970 125.016 125.036 125.115 125.196 125.181 125.080 125.079 125.095 124.928 124.670 124.616 124.637 124.647 124.629 124.661 124.722 124.830 124.925 124.924 124.930 124.898 124.730 124.543 124.379 124.217 124.219 124.302 124.443 124.615 124.856 124.953 124.940 124.921 124.929 124.876 124.752 124.462 124.184 123.874 123.532 123.188 122.774 122.414 121.963 121.531 121.323 121.217 120.903 120.754 120.731 120.696 120.349 120.139 120.243 120.328 120.449 120.801 120.721 120.854 120.850 120.949 121.026 121.018 120.759 120.307 120.313 120.650 120.815 120.768 120.484 120.453 120.604 120.605 120.531 120.436 120.678 120.767 120.416 120.208 120.543 120.831 121.095 121.093 121.153 120.893 120.359 120.185 120.221 120.183 120.638 120.640 120.623 120.882 120.817 120.760 120.398 120.632 120.850 120.732 120.234 120.596 120.940 120.610 120.274 120.253 120.443 120.496 120.291 120.515 120.858 120.999 120.901 120.888 120.524 120.767 120.859 120.865 120.983 120.322 120.515 120.608 120.407 120.374 120.577 120.725 120.764 120.769 120.844 120.953 120.887 120.900 120.877 121.064 121.364 121.716 122.024 122.096 121.941 121.783 121.584 121.182 120.928 120.688 120.691 120.686 120.805 120.714 120.663 120.654 120.627 120.535 120.728 120.582 120.651 120.696 120.754 120.901 120.980 120.838 120.675 121.050 121.682 122.123 122.061 121.676 121.763 121.628 121.293 121.776 121.687 121.428 121.407 121.418 121.412 121.400 121.588 121.906 122.172 122.605 123.197 123.343 123.005 123.573
122.736 122.713 122.676 122.733 122.747 122.712 122.772 122.708 122.775 122.720 122.709 122.806 122.801 122.796 122.767 122.678 122.757 122.792 122.724 122.685 122.778 122.773 122.758 122.761 122.742 122.722 122.681 122.779 122.793 122.805 122.783 122.788 122.803 122.824 122.826 122.811 122.815 122.804 122.808 122.827 122.814 122.793 122.818 122.844 122.867 122.810 122.787 122.816 122.829 122.834 122.815 122.794 122.757 122.746 122.734 122.747 122.732 122.723 122.718 122.699 122.685 122.697 122.672 122.338 121.537 121.529 122.111 122.678 122.542 122.605 122.626 122.543 121.889 120.746 120.870 122.384 122.595 122.609 122.671 122.758 121.963 120.301 121.966 122.478 122.523 122.509 122.564 122.542 122.564 122.573 122.588 122.601 122.607 122.627 122.631 122.618 122.629 122.638 122.624 122.611 122.592 122.573 122.546 122.527 122.518 122.517 122.503 122.477 122.485 122.440 122.385 122.404 122.374 122.342 122.324 122.348 122.274 122.294 122.265 122.221 122.275 122.192 122.177 122.167 122.232 122.176 122.075 122.066 122.156 122.152 122.039 121.969 122.110 122.145 122.156 122.178 122.005 122.049 122.212 122.289 122.324 122.360 122.357 122.313 122.289 122.278 122.332 122.500 122.645 122.842 123.088 123.356 123.585 123.706 123.824 123.937 124.020 124.056 124.115 124.239 124.348 124.274 124.724 124.949 125.028 125.160 125.356 125.371 125.230 125.109 124.800 124.660 124.751 124.720 124.647 124.546 124.418 124.344 124.283 124.229 124.416 124.597 124.694 124.747 124.831 124.935 125.089 125.119 125.139 125.150 125.111 124.961 124.709 124.625 124.577 124.566 124.566 124.575 124.598 124.646 124.718 124.706 124.726 124.683 124.529 124.360 124.107 123.990 124.042 124.190 124.368 124.612 124.823 124.901 124.866 124.877 124.892 124.824 124.662 124.458 124.200 123.890 123.547 123.218 122.818 122.417 121.877 121.491 121.297 121.189 120.938 120.845 120.921 120.784 120.596 120.535 120.718 120.718 120.857 120.820 120.827 120.784 120.902 121.128 120.952 121.025 120.806 120.466 120.368 120.335 120.426 120.456 120.717 120.664 120.880 120.804 120.878 120.653 120.355 120.450 120.273 120.395 121.077 121.073 121.076 120.817 120.930 121.069 120.751 120.377 120.161 120.453 120.596 120.652 120.783 120.699 120.911 120.793 120.325 120.518 120.494 120.246 120.402 120.897 120.757 120.820 120.730 121.007 120.937 120.881 120.852 120.953 120.670 120.798 120.644 120.592 120.453 120.377 120.533 120.461 120.717 120.571 120.312 120.373 120.535 120.580 120.510 120.773 120.820 120.684 120.834 120.719 120.735 120.918 120.695 120.700 120.933 121.050 121.304 121.516 121.527 121.409 121.097 120.808 120.730 120.621 120.802 120.547 120.807 120.716 120.566 120.582 120.621 120.418 120.599 120.570 120.662 120.668 120.694 120.930 120.852 120.796 120.984 121.068 121.289 121.780 122.273 122.196 121.837 122.096 121.911 122.071 121.526 121.436 121.412 121.417 121.417 121.404 121.466 121.792 122.080 122.155 122.475 122.756 122.787 123.497
122.748 122.710 122.694 122.709 122.801 122.742 122.740 122.716 122.792 122.775 122.685 122.757 122.721 122.718 122.712 122.726 122.797 122.771 122.702 122.698 122.785 122.777 122.768 122.752 122.706 122.711 122.722 122.726 122.749 122.779 122.768 122.764 122.784 122.796 122.807 122.794 122.793 122.779 122.786 122.800 122.799 122.791 122.785 122.796 122.803 122.778 122.778 122.789 122.800 122.790 122.771 122.758 122.748 122.728 122.705 122.729 122.737 122.736 122.727 122.702 122.725 122.732 122.739 122.617 122.340 122.371 122.714 122.688 122.592 122.651 122.628 122.623 122.593 122.487 121.212 120.501 122.322 122.619 122.630 122.676 122.541 120.859 120.534 122.442 122.790 122.712 122.679 122.646 122.653 122.629 122.619 122.618 122.624 122.627 122.620 122.623 122.641 122.638 122.637 122.625 122.612 122.587 122.557 122.537 122.512 122.507 122.520 122.490 122.454 122.455 122.413 122.421 122.370 122.361 122.304 122.351 122.281 122.301 122.214 122.278 122.316 122.293 122.265 122.270 122.250 122.198 122.133 121.967 121.963 122.125 122.157 122.055 122.108 122.079 122.046 122.126 122.029 122.039 122.198 122.245 122.273 122.322 122.326 122.271 122.253 122.261 122.299 122.391 122.547 122.716 122.900 123.092 123.255 123.330 123.460 123.642 123.818 123.907 123.941 123.951 123.929 123.886 124.318 124.435 124.531 124.649 124.727 124.665 124.584 124.567 124.373 124.200 124.273 124.296 124.304 124.247 124.187 124.065 123.974 123.978 124.158 124.301 124.386 124.486 124.656 124.773 124.900 124.983 125.025 125.061 125.043 124.954 124.821 124.724 124.630 124.586 124.588 124.579 124.538 124.545 124.599 124.622 124.620 124.531 124.325 124.029 123.797 123.780 123.917 124.106 124.348 124.587 124.741 124.792 124.765 124.810 124.797 124.681 124.567 124.424 124.145 123.839 123.466 123.106 122.652 122.181 121.702 121.353 121.213 121.136 120.956 120.791 120.885 120.699 120.445 120.633 120.849 120.799 120.761 120.880 121.024 121.011 120.689 120.743 120.650 120.840 120.650 120.290 120.501 120.361 120.803 120.969 121.008 120.836 120.958 120.826 120.603 120.915 120.757 120.244 120.163 120.623 121.080 120.859 120.607 120.600 120.964 121.175 121.183 120.955 120.513 120.182 120.276 121.001 121.088 120.931 120.466 120.532 120.114 120.120 120.405 120.648 120.726 120.851 120.721 120.786 120.717 120.883 120.924 120.935 120.954 120.980 120.908 120.627 120.867 120.854 120.805 120.644 120.687 120.605 120.335 120.474 120.301 120.387 120.574 120.779 120.617 120.611 120.785 120.568 120.611 120.604 120.583 120.622 120.575 120.502 120.611 120.663 120.711 120.766 120.730 120.669 120.567 120.532 120.519 120.604 120.732 120.398 120.755 120.615 120.504 120.534 120.398 120.444 120.466 120.629 120.615 120.718 120.716 120.950 120.997 120.736 120.874 121.034 121.159 121.219 121.744 122.410 122.469 122.132 121.737 121.541 121.474 121.432 121.430 121.431 121.428 121.435 121.468 121.690 121.901 122.053 122.127 122.623 123.048 122.804
122.689 122.729 122.731 122.747 122.806 122.755 122.660 122.708 122.770 122.731 122.678 122.750 122.734 122.760 122.688 122.682 122.770 122.725 122.635 122.693 122.768 122.782 122.735 122.683 122.689 122.710 122.723 122.695 122.682 122.747 122.743 122.746 122.747 122.781 122.798 122.783 122.790 122.754 122.744 122.761 122.766 122.769 122.778 122.755 122.744 122.748 122.756 122.766 122.773 122.753 122.756 122.746 122.718 122.701 122.701 122.705 122.712 122.710 122.712 122.712 122.742 122.768 122.760 122.647 122.526 122.727 122.700 122.676 122.637 122.644 122.610 122.608 122.213 122.131 122.007 121.042 120.826 122.511 122.546 122.587 122.638 122.321 120.577 121.128 122.368 122.653 122.666 122.669 122.685 122.668 122.666 122.642 122.625 122.605 122.610 122.609 122.610 122.625 122.617 122.614 122.598 122.591 122.564 122.532 122.511 122.490 122.508 122.502 122.463 122.401 122.401 122.378 122.317 122.328 122.320 122.362 122.297 122.232 122.296 122.301 122.248 122.253 122.282 122.293 122.263 122.193 122.102 122.098 122.083 121.973 122.029 122.013 121.948 121.996 122.120 122.091 122.058 121.976 122.115 122.229 122.281 122.296 122.314 122.324 122.273 122.272 122.263 122.274 122.367 122.511 122.636 122.754 122.911 123.048 123.183 123.327 123.499 123.624 123.647 123.583 123.476 123.544 123.862 123.853 123.881 124.045 124.093 123.997 123.971 124.052 123.943 123.783 123.807 123.838 123.884 123.881 123.834 123.778 123.700 123.698 123.806 123.918 124.040 124.180 124.316 124.466 124.608 124.754 124.816 124.875 124.894 124.864 124.810 124.773 124.717 124.652 124.650 124.594 124.528 124.507 124.558 124.598 124.558 124.445 124.056 123.658 123.518 123.548 123.719 123.978 124.267 124.422 124.537 124.591 124.618 124.634 124.581 124.466 124.389 124.231 123.981 123.700 123.341 122.869 122.364 122.025 121.564 121.292 121.031 120.988 120.868 120.886 120.885 120.788 120.586 120.602 120.790 120.865 120.644 120.925 121.034 121.015 120.693 120.770 120.995 120.799 120.726 120.806 120.530 120.297 120.744 121.020 121.044 120.885 121.017 120.956 120.631 120.858 120.957 120.611 120.249 120.237 120.841 120.814 120.987 121.030 120.615 120.984 120.994 120.970 120.918 120.311 120.340 120.881 120.801 120.909 120.379 120.025 120.089 120.570 120.823 120.720 120.737 120.757 120.573 120.898 120.952 121.043 120.915 120.885 120.981 120.888 120.798 120.814 120.836 120.759 120.629 120.750 120.954 121.068 120.726 120.316 120.287 120.240 120.493 120.558 120.539 120.496 120.522 120.507 120.555 120.599 120.496 120.477 120.502 120.491 120.472 120.513 120.480 120.453 120.422 120.393 120.417 120.547 120.764 120.532 120.370 120.370 120.750 120.624 120.631 120.650 120.393 120.411 120.478 120.469 120.510 120.556 120.807 120.849 120.735 120.677 120.936 120.945 120.891 120.955 121.171 121.791 122.421 122.653 122.388 121.912 121.643 121.535 121.481 121.449 121.456 121.465 121.447 121.450 121.610 121.813 122.003 122.579 122.395 122.737
122.710 122.712 122.736 122.804 122.804 122.767 122.720 122.673 122.705 122.655 122.690 122.761 122.763 122.702 122.671 122.751 122.754 122.708 122.659 122.720 122.743 122.744 122.695 122.683 122.712 122.710 122.724 122.722 122.672 122.717 122.695 122.708 122.704 122.742 122.749 122.761 122.773 122.743 122.724 122.717 122.726 122.728 122.735 122.728 122.719 122.713 122.733 122.742 122.741 122.746 122.742 122.728 122.693 122.654 122.693 122.714 122.695 122.703 122.708 122.709 122.723 122.749 122.744 122.665 122.582 122.728 122.668 122.580 122.513 122.594 122.513 122.206 121.965 122.238 122.515 122.380 120.694 120.950 122.129 122.441 122.570 122.641 122.065 121.004 120.885 121.782 122.346 122.533 122.659 122.709 122.695 122.671 122.648 122.616 122.600 122.586 122.595 122.625 122.626 122.621 122.598 122.595 122.572 122.532 122.512 122.490 122.475 122.433 122.478 122.446 122.427 122.421 122.391 122.342 122.333 122.337 122.302 122.293 122.327 122.284 122.315 122.257 122.260 122.239 122.211 122.219 122.236 122.247 122.149 122.120 122.122 122.176 122.105 121.986 122.107 122.087 122.186 122.058 122.036 122.148 122.208 122.238 122.274 122.293 122.260 122.286 122.288 122.243 122.289 122.310 122.357 122.439 122.550 122.628 122.748 122.890 123.055 123.184 123.190 123.111 123.061 123.138 123.276 123.250 123.245 123.364 123.386 123.393 123.495 123.568 123.417 123.273 123.261 123.280 123.331 123.375 123.367 123.352 123.305 123.301 123.375 123.489 123.604 123.760 123.942 124.112 124.296 124.454 124.560 124.625 124.663 124.687 124.676 124.675 124.664 124.630 124.647 124.569 124.485 124.502 124.575 124.563 124.458 124.263 123.806 123.458 123.291 123.317 123.526 123.797 124.005 124.140 124.232 124.275 124.298 124.299 124.232 124.155 124.108 123.923 123.680 123.365 122.992 122.486 122.068 121.782 121.383 121.245 121.105 120.887 120.706 120.617 120.504 120.687 120.543 120.751 120.931 120.851 120.828 120.927 120.797 120.857 120.978 120.742 120.919 120.905 121.013 121.015 120.821 120.355 120.610 120.814 120.612 120.267 120.528 120.814 120.763 120.793 120.948 120.969 120.582 120.193 120.554 120.952 121.132 121.163 121.077 120.892 121.014 120.904 120.953 120.404 120.275 120.869 120.738 120.828 120.419 120.207 120.877 120.811 120.478 120.706 120.851 120.452 120.887 120.940 120.533 120.740 120.598 120.938 121.038 120.958 121.006 121.154 121.058 120.763 120.925 120.984 120.792 120.692 120.721 120.349 120.386 120.437 120.272 120.459 120.466 120.400 120.308 120.300 120.516 120.586 120.444 120.495 120.398 120.495 120.456 120.454 120.419 120.404 120.394 120.406 120.466 120.683 120.613 120.478 120.234 120.488 120.613 120.521 120.367 120.433 120.359 120.458 120.444 120.425 120.566 120.660 120.821 120.783 120.611 120.488 120.743 120.821 120.690 120.865 120.848 121.138 121.943 122.836 123.057 122.618 121.897 121.623 121.569 121.543 121.534 121.472 121.526 121.508 121.480 121.643 121.931 122.148 122.000 122.276
122.760 122.762 122.780 122.763 122.761 122.752 122.722 122.642 122.652 122.732 122.727 122.736 122.655 122.650 122.748 122.733 122.733 122.673 122.678 122.739 122.732 122.669 122.636 122.727 122.707 122.678 122.721 122.722 122.666 122.666 122.669 122.678 122.662 122.679 122.682 122.715 122.721 122.715 122.713 122.720 122.733 122.717 122.701 122.724 122.703 122.685 122.705 122.725 122.730 122.734 122.729 122.712 122.674 122.670 122.688 122.685 122.681 122.712 122.716 122.700 122.727 122.720 122.713 122.626 122.547 122.680 122.686 122.663 122.562 122.382 122.031 122.021 122.491 122.541 122.543 122.527 122.410 121.009 120.405 120.533 120.816 121.766 122.323 122.010 121.082 120.091 120.278 121.191 122.057 122.287 122.543 122.701 122.680 122.630 122.608 122.585 122.571 122.571 122.579 122.576 122.575 122.576 122.559 122.539 122.501 122.493 122.473 122.395 122.455 122.445 122.396 122.404 122.381 122.338 122.299 122.349 122.334 122.329 122.325 122.325 122.309 122.289 122.299 122.296 122.240 122.164 122.147 122.189 122.148 122.166 122.118 122.163 122.135 122.054 122.038 122.103 122.197 122.172 122.007 122.084 122.136 122.180 122.230 122.242 122.198 122.253 122.257 122.231 122.270 122.241 122.246 122.251 122.252 122.323 122.397 122.497 122.605 122.672 122.653 122.587 122.660 122.683 122.668 122.670 122.732 122.774 122.811 122.877 122.943 122.981 122.857 122.730 122.692 122.707 122.767 122.812 122.821 122.842 122.858 122.814 122.856 122.984 123.066 123.279 123.539 123.724 123.909 124.091 124.220 124.319 124.356 124.358 124.391 124.439 124.508 124.536 124.536 124.481 124.440 124.504 124.527 124.456 124.263 123.951 123.614 123.288 123.038 123.072 123.293 123.495 123.643 123.769 123.873 123.868 123.884 123.908 123.871 123.901 123.851 123.600 123.251 122.862 122.483 122.116 121.828 121.483 121.188 121.169 120.943 120.928 120.558 120.618 120.780 120.862 120.814 120.569 120.891 120.941 120.878 120.820 120.679 120.544 120.624 120.519 120.915 121.061 120.963 121.094 120.792 120.292 120.842 121.068 120.914 120.982 120.498 120.433 120.773 120.858 120.681 120.736 120.388 120.138 120.496 120.867 120.936 121.096 121.010 120.671 120.602 120.828 120.929 120.342 120.155 120.854 120.867 120.537 120.098 120.527 120.874 120.801 120.524 120.925 120.836 120.536 120.599 120.323 120.528 120.612 120.597 120.324 120.436 120.722 120.950 121.031 121.090 120.697 121.149 120.995 120.871 120.688 120.346 120.459 120.689 120.446 120.404 120.283 120.505 120.640 120.487 120.294 120.517 120.485 120.469 120.446 120.451 120.497 120.458 120.503 120.463 120.422 120.396 120.435 120.413 120.368 120.225 120.249 120.193 120.442 120.371 120.489 120.532 120.674 120.386 120.233 120.615 120.637 120.556 120.639 120.884 120.784 120.413 120.598 120.849 120.749 120.655 120.740 120.782 120.880 121.253 122.253 123.142 123.245 122.758 122.074 121.605 121.650 121.627 121.512 121.566 121.567 121.540 121.448 121.577 121.817 121.803 122.116
122.708 122.722 122.711 122.687 122.678 122.640 122.604 122.639 122.739 122.769 122.724 122.626 122.669 122.695 122.699 122.680 122.731 122.659 122.628 122.715 122.673 122.644 122.667 122.696 122.681 122.677 122.716 122.699 122.650 122.639 122.680 122.663 122.666 122.697 122.686 122.704 122.702 122.687 122.680 122.720 122.716 122.681 122.681 122.701 122.680 122.663 122.684 122.714 122.722 122.725 122.711 122.675 122.656 122.669 122.669 122.675 122.668 122.681 122.685 122.692 122.720 122.738 122.719 122.517 122.462 122.468 122.555 122.466 122.318 122.362 122.577 122.553 122.537 122.525 122.477 122.376 122.304 122.372 122.456 122.271 121.770 120.391 120.723 120.793 120.771 122.179 121.801 120.399 120.159 120.295 120.239 120.536 122.021 122.590 122.599 122.576 122.551 122.524 122.528 122.556 122.540 122.534 122.543 122.522 122.505 122.497 122.447 122.387 122.396 122.360 122.353 122.425 122.394 122.313 122.362 122.348 122.350 122.332 122.306 122.324 122.312 122.275 122.279 122.264 122.273 122.265 122.182 122.103 122.183 122.211 122.115 122.076 122.164 122.103 122.020 122.105 122.169 122.157 122.154 122.023 122.089 122.123 122.175 122.199 122.197 122.233 122.221 122.208 122.256 122.199 122.214 122.219 122.225 122.179 122.208 122.273 122.316 122.351 122.382 122.354 122.372 122.368 122.383 122.428 122.471 122.509 122.538 122.552 122.521 122.507 122.466 122.434 122.402 122.381 122.381 122.397 122.394 122.404 122.436 122.398 122.392 122.466 122.552 122.795 123.058 123.245 123.431 123.618 123.771 123.904 123.944 123.885 123.913 124.094 124.254 124.334 124.370 124.355 124.325 124.384 124.366 124.275 123.947 123.704 123.371 123.027 122.763 122.766 122.949 123.092 123.215 123.314 123.408 123.404 123.436 123.458 123.504 123.565 123.487 123.209 122.769 122.387 122.123 121.831 121.532 121.334 121.265 121.026 120.870 120.857 120.732 120.608 120.930 120.900 120.748 120.589 120.908 120.904 120.752 120.701 120.931 120.920 121.033 120.971 120.739 121.052 120.880 120.868 120.482 120.349 120.979 120.994 120.853 120.790 120.544 120.817 120.696 120.873 121.065 120.796 120.185 120.153 120.422 120.944 120.824 120.870 120.654 120.797 120.953 120.669 120.516 120.128 120.379 120.907 120.778 120.106 120.375 120.904 120.917 120.495 120.315 120.616 120.386 120.780 120.367 120.822 121.007 121.005 120.996 120.786 120.527 120.741 121.145 120.890 120.843 120.710 120.971 120.903 120.906 120.886 120.702 120.449 120.709 120.564 120.458 120.259 120.349 120.516 120.511 120.284 120.396 120.453 120.491 120.454 120.365 120.415 120.527 120.413 120.465 120.463 120.368 120.336 120.191 120.164 120.275 120.650 120.519 120.444 120.469 120.479 120.516 120.552 120.307 120.616 120.815 120.484 120.568 120.434 120.875 120.507 120.510 120.883 120.894 120.789 120.860 120.682 120.698 120.829 120.968 121.458 122.543 123.322 123.276 122.611 121.733 121.632 121.628 121.528 121.492 121.443 121.556 121.452 121.464 121.613 121.781 122.121
122.755 122.746 122.709 122.707 122.728 122.645 122.638 122.734 122.776 122.773 122.735 122.629 122.747 122.730 122.716 122.720 122.740 122.646 122.619 122.728 122.706 122.657 122.693 122.676 122.684 122.659 122.690 122.681 122.674 122.618 122.655 122.648 122.638 122.660 122.658 122.692 122.697 122.692 122.668 122.673 122.677 122.687 122.670 122.680 122.667 122.630 122.667 122.703 122.721 122.722 122.694 122.671 122.657 122.657 122.655 122.669 122.680 122.661 122.670 122.707 122.707 122.715 122.719 122.652 122.653 122.657 122.646 122.501 122.585 122.602 122.642 122.625 122.600 122.595 122.540 122.521 122.510 122.535 122.495 122.431 122.251 121.899 121.674 121.915 122.514 122.593 122.562 122.417 122.333 122.430 122.032 120.838 120.113 120.752 122.427 122.557 122.535 122.502 122.491 122.507 122.515 122.513 122.514 122.488 122.473 122.470 122.434 122.403 122.431 122.452 122.398 122.381 122.345 122.351 122.358 122.322 122.317 122.300 122.290 122.272 122.299 122.264 122.283 122.329 122.309 122.243 122.216 122.174 122.127 122.198 122.150 122.124 122.111 122.040 122.128 122.168 122.129 122.129 122.063 122.048 121.975 122.070 122.096 122.117 122.151 122.194 122.185 122.193 122.234 122.170 122.221 122.240 122.266 122.191 122.170 122.225 122.231 122.264 122.318 122.289 122.269 122.306 122.340 122.362 122.354 122.396 122.438 122.449 122.425 122.402 122.397 122.371 122.342 122.329 122.319 122.313 122.297 122.264 122.251 122.235 122.218 122.231 122.254 122.351 122.503 122.666 122.868 123.063 123.221 123.364 123.425 123.460 123.518 123.605 123.865 124.087 124.162 124.173 124.144 124.152 124.089 123.851 123.660 123.391 123.061 122.701 122.452 122.400 122.445 122.604 122.662 122.746 122.835 122.854 122.829 122.843 122.863 122.930 122.902 122.630 122.281 122.124 121.807 121.536 121.392 121.313 121.216 120.992 120.733 120.679 120.701 120.709 120.814 120.794 120.742 120.799 121.003 121.026 120.948 120.896 121.028 121.005 120.868 121.015 120.798 120.740 120.915 120.913 121.011 120.469 120.981 121.031 120.480 120.368 120.705 120.960 120.905 120.831 121.005 120.438 120.175 120.698 120.964 120.997 121.059 120.806 120.801 120.868 120.872 120.810 120.723 120.223 120.184 120.409 120.402 120.293 120.619 120.623 120.459 120.382 120.500 120.353 120.653 120.277 120.693 120.996 120.982 120.844 120.644 120.883 120.998 120.565 120.737 120.745 121.023 120.882 120.615 120.705 120.882 120.568 120.698 120.408 120.467 120.522 120.592 120.427 120.223 120.394 120.476 120.356 120.308 120.293 120.379 120.376 120.393 120.409 120.377 120.322 120.392 120.296 120.342 120.396 120.192 120.383 120.632 120.546 120.598 120.416 120.737 120.492 120.462 120.335 120.261 120.613 120.681 120.537 120.592 120.463 120.688 120.511 120.800 120.919 120.895 120.766 120.800 120.870 120.843 120.732 120.897 121.133 121.776 123.048 123.494 122.961 121.949 121.606 121.651 121.484 121.462 121.449 121.463 121.449 121.500 121.577 121.589 121.682
122.776 122.731 122.756 122.764 122.722 122.635 122.749 122.756 122.750 122.712 122.672 122.664 122.729 122.748 122.753 122.728 122.707 122.576 122.657 122.721 122.693 122.640 122.690 122.662 122.669 122.658 122.687 122.681 122.683 122.630 122.640 122.639 122.615 122.646 122.639 122.683 122.719 122.701 122.676 122.638 122.630 122.661 122.676 122.695 122.686 122.635 122.649 122.679 122.705 122.684 122.667 122.645 122.641 122.655 122.663 122.662 122.686 122.685 122.697 122.697 122.707 122.711 122.681 122.665 122.710 122.715 122.661 122.662 122.666 122.676 122.704 122.691 122.674 122.659 122.627 122.590 122.581 122.560 122.555 122.530 122.471 122.429 122.358 122.415 122.501 122.527 122.503 122.493 122.550 122.740 122.835 122.541 122.019 120.065 121.870 122.581 122.566 122.519 122.489 122.478 122.483 122.479 122.459 122.475 122.451 122.459 122.439 122.438 122.446 122.424 122.412 122.359 122.379 122.389 122.380 122.336 122.309 122.350 122.364 122.301 122.301 122.253 122.337 122.308 122.290 122.277 122.218 122.184 122.124 122.135 122.163 122.120 122.144 122.018 122.154 122.205 122.106 122.150 122.099 121.958 122.063 122.113 122.088 122.114 122.163 122.103 122.097 122.099 122.139 122.106 122.178 122.186 122.216 122.135 122.193 122.273 122.285 122.276 122.237 122.283 122.234 122.324 122.341 122.330 122.292 122.350 122.408 122.424 122.416 122.395 122.350 122.317 122.275 122.269 122.285 122.280 122.267 122.257 122.220 122.196 122.185 122.180 122.175 122.193 122.207 122.238 122.327 122.464 122.645 122.809 122.923 123.056 123.192 123.246 123.471 123.744 123.856 123.909 123.909 123.878 123.665 123.499 123.290 123.002 122.706 122.348 122.154 122.146 122.120 122.141 122.223 122.253 122.274 122.307 122.334 122.330 122.298 122.265 122.186 122.044 121.890 121.678 121.484 121.415 121.394 121.279 121.016 120.876 120.812 120.659 120.689 120.796 120.833 120.829 120.622 120.783 121.019 120.841 120.922 120.881 121.096 120.896 120.851 120.983 120.596 120.496 121.033 120.948 120.945 120.603 120.913 120.929 120.541 120.564 120.798 121.003 120.793 120.919 121.020 120.260 120.404 120.954 121.158 121.180 120.978 120.881 120.916 120.753 120.897 121.128 121.031 120.578 120.079 120.113 120.152 120.799 120.981 120.710 120.662 120.845 120.617 120.960 120.943 120.766 120.996 120.843 120.633 120.896 121.012 121.171 121.200 120.920 120.707 120.703 121.099 121.076 120.884 120.478 120.802 120.510 120.526 120.584 120.577 120.467 120.403 120.405 120.324 120.234 120.241 120.276 120.321 120.328 120.342 120.317 120.341 120.343 120.341 120.386 120.391 120.302 120.360 120.457 120.239 120.342 120.398 120.551 120.424 120.479 120.516 120.515 120.294 120.297 120.427 120.380 120.459 120.518 120.574 120.422 120.443 120.623 120.873 120.788 120.825 120.835 120.780 120.665 120.809 120.902 120.825 120.928 121.180 122.392 123.391 123.148 122.042 121.614 121.610 121.481 121.427 121.441 121.441 121.465 121.534 121.613 121.696 121.530
122.729 122.777 122.792 122.760 122.664 122.590 122.727 122.728 122.686 122.643 122.577 122.704 122.731 122.707 122.689 122.606 122.639 122.656 122.620 122.716 122.664 122.683 122.643 122.585 122.657 122.687 122.685 122.675 122.663 122.620 122.585 122.594 122.603 122.606 122.628 122.668 122.723 122.722 122.682 122.662 122.653 122.646 122.653 122.687 122.676 122.657 122.671 122.655 122.675 122.692 122.669 122.669 122.668 122.663 122.665 122.641 122.666 122.684 122.698 122.672 122.701 122.697 122.634 122.680 122.680 122.715 122.713 122.697 122.687 122.703 122.722 122.710 122.725 122.739 122.720 122.698 122.678 122.661 122.625 122.600 122.543 122.519 122.463 122.454 122.387 122.435 122.474 122.483 122.525 122.632 122.788 122.541 122.254 121.152 120.541 122.558 122.560 122.515 122.491 122.494 122.477 122.472 122.462 122.457 122.473 122.453 122.404 122.403 122.394 122.365 122.380 122.403 122.370 122.338 122.335 122.375 122.337 122.358 122.351 122.311 122.332 122.292 122.300 122.309 122.264 122.239 122.236 122.165 122.152 122.150 122.106 122.057 122.155 122.051 122.150 122.224 122.114 122.144 122.092 122.020 122.147 122.126 122.135 122.138 122.142 122.052 122.112 122.172 122.136 122.143 122.206 122.190 122.192 122.115 122.171 122.242 122.250 122.232 122.252 122.247 122.234 122.312 122.351 122.345 122.269 122.323 122.376 122.383 122.371 122.339 122.304 122.267 122.222 122.231 122.245 122.252 122.253 122.244 122.209 122.180 122.168 122.168 122.166 122.177 122.184 122.178 122.173 122.184 122.258 122.409 122.588 122.771 122.921 123.016 123.210 123.380 123.472 123.575 123.582 123.372 123.147 123.062 122.881 122.657 122.319 122.016 121.834 121.727 121.683 121.733 121.809 121.848 121.854 121.888 121.957 122.095 122.117 121.954 121.784 121.618 121.512 121.382 121.370 121.313 121.282 121.157 120.936 120.804 120.606 120.815 120.953 120.832 120.867 120.879 120.743 120.699 120.906 120.889 120.688 120.915 121.035 121.012 120.937 120.639 120.462 120.597 121.100 120.949 120.739 120.372 120.469 120.438 120.543 120.989 120.997 120.833 120.889 120.649 120.957 120.270 120.239 120.316 120.671 120.830 120.927 120.969 120.873 120.502 121.001 121.084 120.943 120.688 120.038 120.080 120.222 120.733 121.104 121.073 120.990 120.953 120.947 120.942 120.629 120.858 120.550 120.344 120.651 121.125 120.857 120.823 121.105 120.829 121.039 120.484 120.989 121.068 120.847 120.370 120.446 120.400 120.604 120.600 120.516 120.511 120.586 120.410 120.339 120.325 120.284 120.309 120.223 120.279 120.437 120.379 120.454 120.300 120.274 120.269 120.246 120.236 120.250 120.351 120.255 120.278 120.273 120.457 120.573 120.472 120.374 120.244 120.282 120.311 120.431 120.287 120.447 120.385 120.309 120.306 120.400 120.620 120.868 120.623 120.837 120.898 120.828 120.799 120.804 120.722 120.732 120.839 121.012 121.602 122.898 123.346 122.025 121.608 121.596 121.496 121.410 121.421 121.430 121.468 121.529 121.498 121.757 121.664
122.745 122.759 122.726 122.695 122.688 122.698 122.679 122.728 122.736 122.644 122.613 122.720 122.658 122.596 122.605 122.593 122.684 122.639 122.612 122.694 122.680 122.690 122.657 122.557 122.633 122.670 122.676 122.673 122.661 122.590 122.596 122.556 122.556 122.600 122.600 122.634 122.684 122.676 122.642 122.643 122.651 122.669 122.663 122.657 122.676 122.666 122.669 122.681 122.680 122.689 122.694 122.692 122.702 122.703 122.671 122.670 122.678 122.703 122.689 122.694 122.703 122.654 122.628 122.677 122.672 122.739 122.739 122.750 122.741 122.749 122.752 122.735 122.727 122.733 122.720 122.721 122.719 122.710 122.690 122.668 122.637 122.616 122.554 122.518 122.533 122.444 122.451 122.504 122.535 122.582 122.665 122.519 122.269 121.902 120.519 122.552 122.561 122.534 122.494 122.497 122.483 122.470 122.447 122.401 122.398 122.395 122.401 122.407 122.392 122.404 122.423 122.412 122.407 122.382 122.357 122.401 122.356 122.347 122.330 122.296 122.310 122.308 122.258 122.234 122.207 122.205 122.236 122.206 122.153 122.130 122.107 122.060 122.151 122.022 122.129 122.204 122.175 122.086 122.062 122.022 122.114 122.100 122.087 122.050 122.012 122.139 122.161 122.161 122.198 122.199 122.222 122.246 122.246 122.194 122.174 122.215 122.243 122.217 122.205 122.183 122.246 122.288 122.323 122.341 122.262 122.275 122.280 122.308 122.276 122.247 122.234 122.197 122.202 122.204 122.205 122.214 122.214 122.218 122.207 122.175 122.153 122.145 122.159 122.168 122.171 122.166 122.165 122.161 122.150 122.187 122.288 122.477 122.706 122.822 122.912 123.013 123.085 123.178 123.105 122.797 122.606 122.502 122.433 122.260 121.966 121.703 121.525 121.465 121.431 121.421 121.468 121.554 121.555 121.571 121.684 121.752 121.683 121.556 121.460 121.392 121.369 121.366 121.354 121.289 121.141 121.016 120.885 120.865 120.773 120.893 120.823 120.631 120.659 120.839 120.998 120.688 120.906 120.516 120.344 120.469 120.981 121.127 121.049 121.062 121.103 120.749 120.880 120.994 120.582 120.938 120.931 120.833 120.686 121.018 120.998 120.797 120.718 120.818 121.071 120.263 120.755 121.052 121.129 120.986 120.767 120.901 121.084 120.756 120.522 120.628 120.698 120.651 120.098 120.061 120.092 120.124 120.600 120.878 120.821 120.789 120.749 120.644 121.024 120.838 120.532 120.973 120.556 121.044 120.760 120.656 120.769 120.955 120.932 120.462 120.828 120.873 120.408 120.523 120.606 120.480 120.611 120.597 120.503 120.533 120.535 120.409 120.506 120.407 120.397 120.468 120.330 120.226 120.240 120.291 120.356 120.290 120.353 120.304 120.250 120.205 120.178 120.210 120.125 120.212 120.359 120.314 120.295 120.345 120.277 120.268 120.214 120.310 120.339 120.265 120.215 120.187 120.392 120.586 120.564 120.591 120.724 120.691 120.713 120.737 120.686 120.783 120.788 120.695 120.586 120.726 120.963 121.168 122.082 123.097 122.207 121.701 121.544 121.433 121.443 121.437 121.444 121.442 121.466 121.528 121.612 121.721
122.781 122.796 122.778 122.761 122.737 122.721 122.696 122.702 122.660 122.604 122.618 122.692 122.600 122.666 122.712 122.669 122.650 122.573 122.634 122.690 122.624 122.661 122.652 122.534 122.647 122.666 122.688 122.681 122.657 122.594 122.651 122.601 122.532 122.586 122.601 122.627 122.640 122.637 122.630 122.635 122.655 122.658 122.666 122.657 122.665 122.664 122.647 122.651 122.678 122.683 122.671 122.692 122.700 122.712 122.711 122.679 122.695 122.703 122.711 122.704 122.704 122.668 122.736 122.738 122.767 122.763 122.760 122.755 122.751 122.748 122.699 122.686 122.693 122.678 122.671 122.669 122.678 122.685 122.678 122.663 122.647 122.625 122.608 122.591 122.537 122.428 122.425 122.461 122.513 122.601 122.634 122.461 122.096 121.730 120.580 122.569 122.543 122.539 122.513 122.516 122.502 122.468 122.450 122.427 122.423 122.429 122.431 122.421 122.438 122.445 122.434 122.414 122.417 122.385 122.386 122.403 122.380 122.333 122.356 122.336 122.331 122.296 122.304 122.291 122.289 122.237 122.157 122.215 122.196 122.176 122.192 122.156 122.089 122.016 122.061 122.135 122.163 122.143 122.133 121.990 122.074 122.138 122.127 122.083 122.042 122.148 122.198 122.165 122.173 122.170 122.162 122.140 122.156 122.170 122.223 122.255 122.190 122.198 122.162 122.195 122.235 122.242 122.257 122.267 122.280 122.260 122.255 122.245 122.246 122.229 122.207 122.161 122.165 122.177 122.176 122.172 122.172 122.170 122.162 122.155 122.134 122.137 122.146 122.153 122.144 122.148 122.152 122.147 122.117 122.083 122.116 122.230 122.440 122.594 122.648 122.742 122.805 122.785 122.582 122.376 122.194 122.059 121.922 121.747 121.555 121.429 121.382 121.320 121.345 121.330 121.281 121.284 121.316 121.282 121.398 121.405 121.292 121.355 121.379 121.302 121.323 121.266 121.181 121.087 120.979 120.924 120.804 120.803 120.672 120.737 120.750 120.826 120.783 120.581 120.641 120.404 120.457 120.707 120.939 120.815 120.758 120.918 121.062 121.034 120.858 120.445 120.396 120.469 120.967 121.047 121.025 120.979 120.697 120.774 120.762 120.731 120.755 121.124 121.125 120.428 120.303 120.808 121.096 121.119 121.130 120.724 121.024 120.968 120.494 120.115 120.139 120.055 119.977 120.066 120.245 120.216 120.114 120.115 120.617 120.906 121.045 120.941 120.660 120.470 120.849 121.053 120.931 120.672 120.447 120.975 121.170 121.083 120.912 120.520 120.355 120.377 120.497 120.716 121.089 120.811 120.490 120.479 120.521 120.522 120.433 120.428 120.512 120.412 120.481 120.445 120.437 120.291 120.307 120.355 120.301 120.305 120.344 120.389 120.436 120.418 120.261 120.142 120.265 120.215 120.187 120.256 120.291 120.286 120.342 120.404 120.218 120.325 120.369 120.189 120.207 120.376 120.441 120.492 120.388 120.677 120.657 120.785 120.740 120.786 120.853 120.946 120.710 120.814 120.795 120.780 120.954 121.118 121.540 122.828 122.437 121.637 121.436 121.435 121.441 121.446 121.433 121.446 121.461 121.467 121.575 121.599
122.753 122.746 122.776 122.745 122.703 122.693 122.699 122.660 122.599 122.608 122.590 122.656 122.604 122.686 122.709 122.679 122.561 122.584 122.646 122.689 122.661 122.639 122.613 122.503 122.622 122.656 122.674 122.659 122.632 122.612 122.662 122.599 122.544 122.574 122.591 122.579 122.580 122.619 122.631 122.641 122.636 122.640 122.671 122.664 122.651 122.657 122.649 122.637 122.666 122.677 122.686 122.668 122.710 122.712 122.708 122.724 122.724 122.739 122.731 122.731 122.675 122.690 122.767 122.748 122.762 122.766 122.760 122.767 122.726 122.675 122.670 122.671 122.686 122.672 122.676 122.662 122.639 122.665 122.683 122.666 122.660 122.615 122.597 122.590 122.503 122.433 122.463 122.511 122.506 122.592 122.650 122.558 122.012 120.960 120.830 122.532 122.530 122.522 122.526 122.544 122.529 122.493 122.497 122.500 122.488 122.447 122.436 122.446 122.464 122.456 122.434 122.430 122.423 122.404 122.405 122.401 122.391 122.379 122.356 122.356 122.325 122.324 122.320 122.302 122.264 122.281 122.233 122.196 122.258 122.211 122.160 122.125 122.106 122.145 122.111 122.066 122.084 122.070 122.072 122.027 122.183 122.253 122.264 122.227 122.164 122.098 122.118 122.129 122.166 122.181 122.192 122.198 122.173 122.156 122.167 122.186 122.207 122.251 122.224 122.212 122.221 122.199 122.199 122.232 122.290 122.337 122.312 122.249 122.210 122.194 122.154 122.182 122.170 122.128 122.124 122.131 122.129 122.131 122.119 122.114 122.116 122.125 122.106 122.104 122.110 122.115 122.118 122.119 122.115 122.098 122.094 122.100 122.192 122.305 122.398 122.516 122.535 122.354 122.236 122.034 121.828 121.692 121.576 121.525 121.425 121.364 121.398 121.351 121.232 121.328 121.300 121.333 121.368 121.377 121.426 121.482 121.417 121.364 121.314 121.247 121.166 121.082 120.951 120.968 120.888 120.861 120.781 120.661 120.716 120.641 120.808 120.749 120.746 120.557 120.537 120.898 120.944 121.082 121.192 121.073 120.703 120.737 120.880 120.728 120.879 120.666 120.553 120.392 120.906 121.035 120.814 120.857 120.490 120.337 120.654 120.511 120.788 121.122 121.137 120.411 120.782 121.128 120.966 120.787 120.842 120.831 121.088 120.865 120.328 120.038 120.021 120.026 120.123 120.547 120.838 120.850 120.705 120.365 120.044 120.385 120.487 120.421 120.408 120.995 121.073 120.957 121.052 121.141 120.574 121.069 121.141 120.795 120.377 120.442 120.712 121.061 121.068 121.136 120.910 120.578 120.520 120.464 120.553 120.484 120.435 120.447 120.334 120.407 120.479 120.412 120.374 120.331 120.434 120.325 120.416 120.476 120.474 120.359 120.292 120.275 120.231 120.189 120.352 120.347 120.369 120.334 120.234 120.341 120.222 120.235 120.186 120.307 120.320 120.193 120.359 120.411 120.318 120.474 120.357 120.543 120.590 120.713 120.599 120.774 120.736 120.617 120.642 120.721 120.743 120.696 120.858 121.048 121.280 122.406 122.363 121.861 121.442 121.421 121.430 121.438 121.444 121.455 121.478 121.471 121.498 121.511
122.729 122.720 122.763 122.754 122.727 122.699 122.635 122.655 122.694 122.674 122.540 122.543 122.557 122.693 122.678 122.640 122.549 122.637 122.684 122.699 122.662 122.597 122.522 122.511 122.605 122.630 122.647 122.645 122.576 122.601 122.625 122.569 122.524 122.504 122.558 122.549 122.563 122.585 122.636 122.620 122.632 122.634 122.653 122.641 122.627 122.649 122.658 122.647 122.679 122.684 122.686 122.676 122.693 122.726 122.709 122.721 122.750 122.743 122.750 122.740 122.684 122.734 122.744 122.726 122.735 122.747 122.727 122.730 122.678 122.650 122.650 122.648 122.642 122.634 122.624 122.636 122.641 122.612 122.647 122.658 122.669 122.641 122.580 122.562 122.470 122.427 122.480 122.542 122.538 122.570 122.656 122.637 122.116 120.508 121.142 122.532 122.530 122.534 122.556 122.545 122.544 122.525 122.510 122.506 122.507 122.499 122.499 122.498 122.488 122.480 122.475 122.455 122.467 122.447 122.415 122.403 122.410 122.377 122.404 122.393 122.371 122.364 122.367 122.338 122.254 122.252 122.235 122.212 122.243 122.233 122.225 122.116 122.095 122.065 122.039 122.041 122.087 122.127 122.104 122.139 122.155 122.162 122.200 122.155 122.165 122.212 122.214 122.155 122.149 122.171 122.172 122.180 122.189 122.179 122.215 122.194 122.212 122.229 122.239 122.222 122.242 122.245 122.229 122.266 122.319 122.362 122.330 122.273 122.215 122.171 122.157 122.153 122.158 122.135 122.092 122.082 122.083 122.083 122.072 122.076 122.080 122.077 122.060 122.068 122.090 122.096 122.092 122.086 122.081 122.079 122.075 122.046 122.044 122.033 122.130 122.182 122.143 122.049 121.895 121.674 121.517 121.490 121.457 121.361 121.413 121.370 121.398 121.396 121.205 121.280 121.288 121.297 121.376 121.466 121.445 121.417 121.373 121.230 121.180 121.097 121.066 120.937 120.921 120.921 120.909 120.819 120.663 120.782 120.792 120.802 120.930 120.844 120.832 120.791 120.831 120.972 121.134 121.007 121.054 120.946 120.610 120.563 120.947 121.118 121.142 121.141 120.909 120.417 121.067 121.004 120.891 121.039 120.886 120.218 120.539 121.089 121.079 121.093 120.997 120.341 121.090 121.102 120.978 121.178 120.909 120.981 121.126 120.884 120.232 120.121 120.580 120.828 120.838 120.828 120.883 120.895 120.847 120.887 120.270 120.037 120.580 120.977 120.775 120.715 120.712 120.905 120.871 120.749 120.911 121.107 120.900 120.567 120.378 120.880 120.946 120.991 120.813 120.717 120.456 120.519 120.362 120.371 120.481 120.329 120.483 120.408 120.362 120.326 120.497 120.401 120.298 120.438 120.391 120.331 120.442 120.495 120.329 120.421 120.389 120.289 120.166 120.138 120.145 120.103 120.119 120.176 120.211 120.246 120.285 120.184 120.290 120.335 120.262 120.196 120.306 120.391 120.318 120.344 120.347 120.516 120.606 120.557 120.479 120.609 120.430 120.527 120.792 120.713 120.792 120.794 120.830 121.011 121.237 122.151 122.076 121.946 121.484 121.424 121.420 121.433 121.423 121.451 121.480 121.485 121.499 121.467
122.746 122.743 122.764 122.731 122.701 122.643 122.657 122.692 122.668 122.563 122.606 122.624 122.539 122.588 122.608 122.644 122.542 122.635 122.679 122.668 122.562 122.556 122.566 122.544 122.589 122.645 122.615 122.608 122.565 122.618 122.582 122.566 122.539 122.474 122.481 122.534 122.545 122.570 122.599 122.621 122.634 122.629 122.636 122.651 122.614 122.625 122.634 122.642 122.679 122.671 122.675 122.667 122.663 122.703 122.719 122.700 122.715 122.735 122.762 122.712 122.729 122.741 122.722 122.724 122.734 122.728 122.685 122.668 122.659 122.657 122.642 122.629 122.623 122.618 122.624 122.629 122.635 122.636 122.632 122.599 122.632 122.641 122.607 122.572 122.523 122.480 122.537 122.566 122.580 122.590 122.642 122.630 122.005 120.077 121.925 122.589 122.561 122.542 122.569 122.562 122.538 122.534 122.523 122.519 122.515 122.524 122.516 122.513 122.523 122.519 122.514 122.499 122.484 122.495 122.479 122.472 122.445 122.402 122.417 122.397 122.393 122.379 122.366 122.332 122.292 122.233 122.209 122.162 122.182 122.194 122.163 122.051 122.068 122.131 122.133 122.153 122.155 122.152 122.136 122.175 122.129 122.152 122.180 122.170 122.197 122.211 122.184 122.247 122.225 122.234 122.212 122.159 122.202 122.202 122.229 122.218 122.248 122.236 122.216 122.217 122.234 122.237 122.241 122.274 122.339 122.333 122.305 122.262 122.206 122.162 122.172 122.151 122.134 122.116 122.100 122.087 122.054 122.062 122.047 122.045 122.034 122.031 122.047 122.058 122.079 122.084 122.081 122.072 122.052 122.035 122.015 121.965 121.926 121.885 121.912 121.863 121.812 121.737 121.646 121.486 121.438 121.352 121.413 121.393 121.397 121.401 121.362 121.418 121.390 121.420 121.406 121.285 121.389 121.441 121.420 121.341 121.304 121.235 121.111 121.110 120.999 120.924 120.875 120.876 120.945 120.972 120.740 120.998 120.873 120.899 121.018 120.804 120.778 120.893 120.903 121.006 121.049 120.906 121.001 120.935 120.911 120.631 120.627 120.905 121.149 121.077 120.744 120.342 120.885 120.968 120.938 120.855 120.727 120.287 120.306 120.510 120.582 120.995 120.462 120.303 120.916 121.118 120.854 121.093 120.715 120.724 120.669 120.630 120.092 120.186 120.745 121.061 120.848 120.728 120.647 120.840 120.276 120.538 120.359 120.172 120.857 120.982 120.820 120.810 120.654 121.080 121.034 120.679 120.960 120.780 120.433 120.666 120.869 120.731 121.050 120.915 121.112 121.033 120.504 120.344 120.393 120.362 120.369 120.334 120.358 120.351 120.466 120.313 120.385 120.438 120.317 120.463 120.386 120.391 120.373 120.320 120.282 120.382 120.338 120.377 120.213 120.244 120.240 120.276 120.275 120.173 120.121 120.126 120.160 120.162 120.241 120.312 120.351 120.237 120.301 120.249 120.263 120.317 120.397 120.386 120.556 120.387 120.385 120.461 120.417 120.603 120.605 120.710 120.818 120.855 120.901 121.071 121.161 121.988 122.094 122.014 121.558 121.439 121.427 121.412 121.423 121.437 121.490 121.487 121.485 121.473
122.749 122.751 122.766 122.725 122.685 122.653 122.668 122.614 122.569 122.599 122.685 122.573 122.564 122.605 122.596 122.637 122.512 122.611 122.594 122.564 122.569 122.636 122.573 122.530 122.579 122.619 122.605 122.587 122.570 122.595 122.563 122.570 122.567 122.493 122.455 122.514 122.537 122.559 122.587 122.618 122.611 122.622 122.642 122.641 122.619 122.616 122.626 122.640 122.655 122.664 122.655 122.659 122.657 122.663 122.698 122.701 122.688 122.696 122.710 122.694 122.709 122.710 122.711 122.684 122.686 122.695 122.673 122.693 122.656 122.631 122.631 122.620 122.615 122.609 122.612 122.627 122.611 122.621 122.598 122.559 122.537 122.567 122.570 122.564 122.536 122.509 122.550 122.544 122.580 122.641 122.659 122.561 121.806 119.904 122.267 122.657 122.624 122.606 122.587 122.554 122.533 122.529 122.508 122.530 122.536 122.540 122.541 122.547 122.543 122.533 122.544 122.546 122.535 122.532 122.531 122.516 122.492 122.446 122.427 122.420 122.403 122.396 122.386 122.358 122.309 122.275 122.226 122.210 122.186 122.116 122.101 122.049 122.165 122.171 122.101 122.088 122.141 122.134 122.110 122.186 122.168 122.225 122.235 122.209 122.244 122.250 122.254 122.268 122.235 122.259 122.282 122.204 122.170 122.217 122.208 122.218 122.243 122.264 122.290 122.246 122.234 122.209 122.231 122.251 122.290 122.270 122.255 122.240 122.190 122.201 122.176 122.154 122.104 122.105 122.100 122.071 122.023 122.029 122.019 122.011 122.005 122.013 122.032 122.037 122.051 122.060 122.063 122.067 122.043 122.009 121.975 121.948 121.917 121.863 121.722 121.677 121.640 121.590 121.564 121.520 121.510 121.389 121.343 121.429 121.371 121.329 121.292 121.396 121.451 121.496 121.426 121.340 121.393 121.416 121.412 121.399 121.255 121.205 121.102 121.064 121.059 120.930 120.936 120.949 120.949 120.959 120.953 121.026 120.991 120.937 120.882 120.880 120.758 120.965 120.863 120.914 120.987 121.094 120.963 121.172 121.095 120.970 120.591 120.569 120.970 121.141 120.907 120.468 120.986 121.036 120.996 121.031 120.894 120.327 120.216 120.225 120.195 120.318 120.195 120.215 120.457 120.742 121.088 121.083 120.903 120.431 120.171 120.090 120.024 120.103 120.264 120.915 120.840 120.514 120.594 120.416 120.393 120.660 120.279 120.121 120.359 121.019 120.792 120.918 121.026 120.830 120.981 120.775 120.541 120.555 120.815 121.152 121.032 121.017 120.995 120.648 120.917 120.834 120.392 120.462 120.487 120.467 120.455 120.427 120.350 120.453 120.453 120.388 120.355 120.350 120.309 120.383 120.364 120.453 120.536 120.428 120.281 120.316 120.373 120.312 120.186 120.305 120.302 120.404 120.335 120.335 120.297 120.247 120.231 120.137 120.143 120.209 120.265 120.253 120.260 120.230 120.308 120.319 120.310 120.324 120.341 120.239 120.267 120.315 120.417 120.478 120.574 120.762 120.640 120.635 120.810 120.984 121.123 121.731 122.131 122.001 121.810 121.461 121.426 121.427 121.443 121.465 121.517 121.504 121.482 121.472
122.770 122.751 122.737 122.710 122.684 122.670 122.633 122.569 122.635 122.562 122.631 122.585 122.583 122.648 122.571 122.576 122.520 122.629 122.579 122.609 122.629 122.627 122.500 122.556 122.579 122.606 122.596 122.572 122.553 122.584 122.566 122.584 122.581 122.515 122.429 122.478 122.501 122.543 122.575 122.600 122.613 122.611 122.608 122.619 122.611 122.621 122.630 122.629 122.624 122.640 122.637 122.648 122.668 122.657 122.649 122.673 122.704 122.703 122.687 122.721 122.689 122.720 122.696 122.676 122.656 122.652 122.636 122.653 122.639 122.613 122.594 122.606 122.626 122.588 122.569 122.600 122.630 122.641 122.615 122.593 122.565 122.534 122.541 122.530 122.462 122.473 122.531 122.561 122.619 122.691 122.712 122.659 122.061 119.876 122.233 122.708 122.670 122.635 122.573 122.531 122.532 122.542 122.517 122.542 122.553 122.560 122.560 122.560 122.563 122.570 122.576 122.579 122.588 122.589 122.570 122.541 122.537 122.519 122.465 122.453 122.425 122.414 122.398 122.364 122.315 122.279 122.224 122.197 122.173 122.189 122.222 122.072 122.078 122.183 122.081 122.149 122.177 122.147 122.116 122.180 122.187 122.145 122.138 122.181 122.218 122.257 122.256 122.269 122.267 122.236 122.257 122.235 122.241 122.220 122.200 122.226 122.275 122.235 122.242 122.264 122.242 122.239 122.253 122.297 122.331 122.290 122.243 122.201 122.156 122.188 122.177 122.156 122.106 122.082 122.084 122.067 122.021 122.019 121.991 121.983 121.972 122.000 122.009 122.017 122.026 122.037 122.049 122.046 122.002 121.956 121.931 121.915 121.904 121.785 121.706 121.636 121.551 121.564 121.627 121.592 121.569 121.509 121.297 121.243 121.224 121.288 121.356 121.273 121.348 121.472 121.434 121.297 121.334 121.440 121.431 121.370 121.299 121.238 121.137 121.185 121.073 120.963 120.934 120.971 121.045 120.996 120.958 120.982 120.998 120.983 120.950 120.980 120.683 120.925 120.874 120.917 120.956 121.010 121.110 121.008 121.063 121.041 120.901 120.835 120.616 121.057 120.982 120.666 120.932 121.098 120.942 120.621 120.317 120.367 120.823 120.726 120.667 120.425 120.323 120.283 120.237 120.273 120.933 121.201 121.062 120.948 120.249 120.017 120.074 120.282 120.254 120.499 120.514 120.601 120.464 120.166 120.723 120.959 120.867 120.725 120.163 120.454 120.472 120.805 120.988 120.897 120.639 120.721 120.380 120.831 121.142 121.125 121.120 121.057 120.909 120.453 120.658 120.667 120.383 120.498 120.454 120.452 120.448 120.331 120.448 120.428 120.401 120.363 120.255 120.301 120.356 120.433 120.479 120.404 120.479 120.358 120.306 120.382 120.220 120.195 120.206 120.316 120.296 120.300 120.332 120.319 120.176 120.240 120.261 120.253 120.233 120.181 120.191 120.246 120.264 120.304 120.242 120.271 120.316 120.316 120.246 120.268 120.392 120.432 120.431 120.450 120.507 120.567 120.684 120.763 120.806 121.008 121.075 121.429 122.349 122.160 122.019 121.530 121.428 121.429 121.440 121.492 121.513 121.519 121.482 121.465
122.751 122.734 122.716 122.711 122.718 122.684 122.633 122.624 122.576 122.550 122.641 122.570 122.575 122.614 122.571 122.506 122.571 122.650 122.581 122.599 122.580 122.516 122.501 122.578 122.556 122.581 122.576 122.554 122.535 122.494 122.520 122.512 122.549 122.527 122.445 122.495 122.474 122.505 122.545 122.572 122.586 122.595 122.609 122.604 122.584 122.620 122.630 122.627 122.625 122.635 122.636 122.673 122.684 122.663 122.662 122.655 122.669 122.669 122.689 122.711 122.703 122.718 122.686 122.664 122.663 122.654 122.611 122.573 122.608 122.559 122.562 122.573 122.599 122.601 122.586 122.569 122.559 122.561 122.570 122.553 122.529 122.542 122.567 122.578 122.491 122.493 122.556 122.607 122.626 122.678 122.698 122.702 122.297 120.020 121.999 122.703 122.696 122.633 122.563 122.522 122.516 122.521 122.537 122.563 122.576 122.582 122.580 122.584 122.582 122.581 122.598 122.558 122.520 122.588 122.608 122.576 122.545 122.525 122.486 122.449 122.423 122.424 122.397 122.357 122.299 122.242 122.219 122.230 122.232 122.201 122.215 122.186 122.037 122.033 121.993 121.993 122.134 122.128 122.085 122.179 122.155 122.151 122.174 122.208 122.256 122.298 122.267 122.246 122.271 122.247 122.236 122.223 122.181 122.209 122.219 122.222 122.241 122.270 122.229 122.238 122.244 122.270 122.288 122.380 122.392 122.322 122.239 122.206 122.188 122.145 122.119 122.109 122.086 122.058 122.050 122.040 122.012 121.976 121.956 121.954 121.946 121.971 121.987 121.995 122.002 122.010 122.013 122.002 121.964 121.917 121.894 121.878 121.807 121.760 121.710 121.674 121.630 121.613 121.604 121.568 121.498 121.438 121.290 121.409 121.328 121.352 121.462 121.437 121.331 121.234 121.213 121.211 121.276 121.154 121.261 121.168 121.150 121.041 121.026 121.043 121.039 120.996 120.907 120.873 120.967 120.980 120.973 120.898 120.840 120.862 121.078 120.934 120.646 120.870 120.646 120.768 120.964 121.031 120.988 120.773 121.022 121.028 121.159 120.838 120.631 120.975 120.984 120.872 120.860 121.054 120.880 120.398 120.534 120.985 121.122 120.998 121.123 120.916 121.052 120.824 120.649 120.234 120.887 121.231 121.097 120.924 120.252 120.115 120.622 120.988 120.890 120.868 120.846 120.934 120.793 120.844 120.675 120.849 121.008 120.661 120.218 120.667 121.011 120.743 121.008 120.921 120.362 120.318 120.443 120.596 120.739 120.662 120.873 120.748 120.493 120.521 120.534 120.513 120.530 120.434 120.526 120.399 120.461 120.343 120.368 120.416 120.436 120.379 120.303 120.436 120.342 120.422 120.433 120.413 120.363 120.387 120.226 120.228 120.249 120.325 120.313 120.291 120.290 120.207 120.202 120.317 120.225 120.186 120.212 120.269 120.245 120.285 120.176 120.209 120.280 120.303 120.252 120.281 120.303 120.267 120.244 120.252 120.270 120.298 120.454 120.631 120.684 120.765 120.697 120.791 120.711 120.898 121.000 121.246 122.010 122.285 122.118 121.555 121.416 121.433 121.451 121.479 121.517 121.540 121.485 121.452
122.707 122.702 122.660 122.661 122.618 122.609 122.610 122.623 122.584 122.613 122.633 122.512 122.601 122.614 122.557 122.485 122.569 122.606 122.515 122.557 122.543 122.486 122.537 122.565 122.564 122.554 122.591 122.585 122.570 122.501 122.477 122.449 122.522 122.503 122.432 122.505 122.525 122.502 122.534 122.538 122.579 122.610 122.581 122.574 122.597 122.614 122.619 122.630 122.618 122.658 122.649 122.658 122.672 122.661 122.663 122.665 122.687 122.648 122.702 122.700 122.694 122.661 122.637 122.649 122.651 122.636 122.630 122.633 122.628 122.614 122.599 122.558 122.548 122.597 122.628 122.590 122.587 122.609 122.627 122.624 122.617 122.620 122.634 122.578 122.523 122.467 122.531 122.576 122.598 122.636 122.660 122.678 122.561 120.598 120.875 122.489 122.667 122.630 122.549 122.511 122.512 122.507 122.534 122.566 122.583 122.599 122.615 122.626 122.590 122.521 121.967 120.612 120.445 120.830 122.119 122.587 122.543 122.525 122.498 122.456 122.403 122.382 122.378 122.344 122.298 122.217 122.271 122.241 122.240 122.181 122.175 122.196 122.157 122.105 122.167 122.063 122.119 122.149 122.182 122.190 122.245 122.226 122.217 122.245 122.274 122.277 122.287 122.313 122.291 122.295 122.245 122.257 122.204 122.180 122.165 122.231 122.221 122.258 122.274 122.247 122.227 122.256 122.307 122.415 122.395 122.322 122.236 122.191 122.176 122.142 122.104 122.093 122.067 122.045 122.018 121.995 122.001 121.970 121.947 121.932 121.928 121.953 121.963 121.980 121.987 121.981 121.975 121.947 121.919 121.900 121.897 121.855 121.794 121.764 121.720 121.695 121.674 121.638 121.533 121.443 121.412 121.369 121.426 121.465 121.444 121.507 121.507 121.500 121.475 121.462 121.389 121.374 121.438 121.371 121.294 121.130 121.095 121.037 121.154 121.128 121.105 121.036 120.974 120.986 120.846 120.827 120.894 120.971 120.925 120.764 120.788 120.831 121.047 120.859 120.863 120.739 121.042 121.039 120.913 120.894 121.153 121.078 121.221 121.100 120.681 120.756 120.982 121.014 120.949 120.750 120.671 120.363 120.865 121.051 120.936 121.132 121.035 121.023 121.224 120.948 121.025 120.277 120.549 121.053 121.062 120.528 120.134 120.220 120.840 120.985 120.931 120.858 120.658 120.665 120.458 120.597 120.651 120.834 120.563 120.193 120.942 120.985 121.015 120.853 120.566 120.395 120.780 120.829 121.085 121.114 121.041 120.960 120.705 120.574 120.515 120.536 120.579 120.561 120.497 120.492 120.533 120.397 120.428 120.357 120.444 120.361 120.378 120.294 120.353 120.397 120.333 120.352 120.416 120.342 120.414 120.390 120.204 120.258 120.252 120.275 120.219 120.231 120.295 120.285 120.207 120.148 120.137 120.136 120.209 120.165 120.193 120.254 120.238 120.170 120.213 120.258 120.246 120.282 120.312 120.260 120.205 120.239 120.299 120.340 120.437 120.576 120.523 120.795 120.807 120.745 120.882 120.937 121.054 121.261 121.856 122.200 122.103 121.524 121.408 121.425 121.452 121.475 121.495 121.548 121.487 121.441
122.671 122.680 122.648 122.635 122.592 122.636 122.645 122.612 122.624 122.640 122.562 122.532 122.597 122.600 122.552 122.499 122.459 122.485 122.557 122.599 122.555 122.470 122.564 122.536 122.571 122.531 122.575 122.591 122.542 122.519 122.538 122.476 122.451 122.428 122.466 122.493 122.524 122.506 122.541 122.519 122.576 122.583 122.554 122.554 122.572 122.580 122.602 122.616 122.623 122.654 122.645 122.647 122.668 122.669 122.676 122.691 122.689 122.666 122.703 122.690 122.680 122.659 122.648 122.637 122.640 122.645 122.663 122.646 122.629 122.627 122.619 122.600 122.589 122.611 122.601 122.566 122.572 122.613 122.626 122.630 122.629 122.609 122.606 122.573 122.569 122.513 122.507 122.520 122.530 122.570 122.618 122.638 122.626 121.891 120.152 122.054 122.495 122.612 122.575 122.533 122.532 122.538 122.553 122.575 122.605 122.619 122.650 122.672 122.423 120.886 119.963 120.415 121.395 120.709 120.191 122.093 122.558 122.529 122.498 122.446 122.402 122.371 122.358 122.331 122.308 122.236 122.249 122.232 122.193 122.216 122.192 122.157 122.187 122.200 122.199 122.086 122.004 122.071 122.104 122.178 122.231 122.220 122.234 122.272 122.287 122.298 122.303 122.310 122.316 122.318 122.213 122.239 122.222 122.231 122.200 122.193 122.248 122.249 122.283 122.257 122.251 122.261 122.276 122.409 122.405 122.340 122.250 122.188 122.152 122.141 122.107 122.082 122.066 122.033 122.022 121.989 121.963 121.963 121.962 121.911 121.906 121.929 121.933 121.948 121.967 121.942 121.938 121.916 121.900 121.882 121.844 121.808 121.786 121.770 121.730 121.692 121.658 121.616 121.492 121.444 121.426 121.412 121.465 121.474 121.491 121.495 121.487 121.504 121.494 121.494 121.447 121.398 121.383 121.398 121.335 121.334 121.291 121.180 121.075 121.169 121.096 121.074 121.011 121.002 120.923 120.996 120.952 120.917 120.992 121.014 120.977 120.962 120.982 121.002 120.928 120.721 120.688 120.577 120.524 120.643 120.934 121.080 121.209 120.884 120.686 120.790 121.072 120.944 120.934 120.714 120.523 120.358 120.870 121.009 121.130 121.088 121.050 121.002 121.118 120.962 121.069 120.634 120.230 120.523 120.996 120.625 120.143 120.153 120.536 121.011 121.034 120.896 120.636 120.874 120.680 120.742 121.014 120.677 120.210 120.668 121.019 120.901 120.790 120.695 120.396 120.628 121.099 121.134 121.264 121.182 121.040 121.096 121.046 121.041 120.728 120.611 120.492 120.394 120.423 120.466 120.433 120.399 120.377 120.375 120.414 120.306 120.310 120.412 120.352 120.391 120.331 120.382 120.306 120.324 120.337 120.269 120.234 120.259 120.187 120.198 120.258 120.178 120.191 120.229 120.155 120.156 120.178 120.193 120.160 120.197 120.211 120.230 120.225 120.178 120.185 120.182 120.273 120.291 120.242 120.204 120.191 120.184 120.235 120.283 120.397 120.434 120.599 120.749 120.563 120.714 120.885 120.934 121.019 121.189 121.739 122.200 122.089 121.507 121.403 121.428 121.439 121.477 121.508 121.497 121.490 121.427
122.695 122.691 122.660 122.656 122.658 122.667 122.624 122.550 122.605 122.571 122.528 122.592 122.567 122.534 122.477 122.458 122.404 122.521 122.587 122.564 122.495 122.460 122.548 122.541 122.563 122.547 122.560 122.597 122.546 122.507 122.539 122.522 122.433 122.405 122.508 122.498 122.526 122.527 122.518 122.501 122.525 122.553 122.527 122.504 122.512 122.545 122.581 122.601 122.618 122.644 122.640 122.644 122.645 122.630 122.656 122.687 122.699 122.716 122.713 122.689 122.690 122.685 122.668 122.643 122.659 122.662 122.677 122.655 122.645 122.640 122.618 122.625 122.600 122.609 122.588 122.594 122.567 122.587 122.629 122.637 122.601 122.591 122.598 122.572 122.584 122.563 122.483 122.488 122.504 122.517 122.576 122.587 122.596 122.464 120.550 120.680 122.108 122.519 122.615 122.570 122.553 122.559 122.577 122.611 122.636 122.677 122.712 122.171 120.347 120.143 121.747 122.321 122.367 122.200 120.935 120.582 122.531 122.555 122.510 122.411 122.374 122.349 122.332 122.330 122.278 122.255 122.271 122.244 122.245 122.251 122.211 122.224 122.188 122.223 122.216 122.197 122.106 121.950 122.210 122.174 122.203 122.226 122.269 122.306 122.320 122.306 122.306 122.302 122.311 122.290 122.285 122.275 122.254 122.250 122.240 122.223 122.224 122.228 122.251 122.271 122.276 122.280 122.301 122.393 122.425 122.379 122.282 122.206 122.159 122.125 122.097 122.090 122.066 122.035 122.029 122.008 121.970 121.946 121.930 121.910 121.886 121.890 121.888 121.900 121.918 121.933 121.923 121.899 121.884 121.845 121.802 121.789 121.787 121.739 121.728 121.678 121.557 121.516 121.458 121.418 121.446 121.471 121.492 121.460 121.472 121.470 121.479 121.469 121.471 121.470 121.419 121.395 121.386 121.422 121.337 121.277 121.186 121.156 121.087 121.137 121.086 121.110 121.036 121.011 120.930 120.934 120.919 120.880 120.791 120.877 120.901 120.829 120.988 120.967 120.952 120.889 120.853 120.900 120.881 120.661 120.699 120.793 120.955 120.862 120.820 120.658 120.943 121.078 121.036 120.907 120.899 120.522 120.505 120.654 120.917 120.942 121.009 120.905 121.049 121.030 121.154 121.017 120.268 120.432 120.871 120.224 120.145 120.185 120.460 120.706 120.871 120.964 120.989 120.794 120.557 120.667 120.920 120.703 120.220 120.272 120.715 121.018 120.509 120.300 120.513 120.946 120.988 121.182 121.242 120.848 120.907 121.068 121.055 120.726 121.125 121.109 120.859 120.380 120.402 120.389 120.552 120.519 120.464 120.435 120.392 120.313 120.429 120.371 120.325 120.307 120.314 120.310 120.355 120.343 120.305 120.288 120.341 120.322 120.311 120.190 120.218 120.219 120.217 120.115 120.201 120.287 120.313 120.248 120.180 120.185 120.160 120.216 120.278 120.217 120.277 120.209 120.243 120.248 120.194 120.210 120.218 120.231 120.269 120.346 120.446 120.496 120.520 120.614 120.553 120.704 120.533 120.605 120.913 121.103 121.612 122.380 121.990 121.531 121.398 121.403 121.433 121.454 121.491 121.485 121.461 121.415
122.701 122.658 122.629 122.651 122.658 122.625 122.573 122.580 122.593 122.502 122.571 122.591 122.518 122.521 122.425 122.499 122.487 122.505 122.581 122.526 122.499 122.441 122.483 122.548 122.567 122.593 122.544 122.570 122.546 122.528 122.521 122.525 122.467 122.362 122.471 122.520 122.513 122.515 122.494 122.473 122.483 122.484 122.461 122.492 122.496 122.525 122.561 122.563 122.598 122.626 122.640 122.632 122.647 122.648 122.645 122.662 122.684 122.724 122.694 122.667 122.653 122.680 122.664 122.642 122.674 122.654 122.647 122.634 122.628 122.630 122.616 122.585 122.600 122.569 122.571 122.573 122.572 122.620 122.605 122.599 122.608 122.606 122.615 122.593 122.543 122.541 122.533 122.509 122.508 122.516 122.540 122.550 122.552 122.589 122.266 120.411 120.571 122.078 122.602 122.622 122.605 122.596 122.615 122.655 122.688 122.638 121.829 120.029 120.535 122.321 122.727 122.672 122.497 122.262 121.890 120.048 122.176 122.566 122.505 122.428 122.380 122.342 122.301 122.273 122.281 122.226 122.250 122.206 122.240 122.255 122.213 122.221 122.178 122.242 122.228 122.279 122.220 121.986 122.163 122.251 122.214 122.256 122.300 122.331 122.327 122.310 122.322 122.313 122.303 122.293 122.296 122.274 122.284 122.262 122.258 122.260 122.213 122.229 122.251 122.279 122.264 122.275 122.301 122.376 122.421 122.382 122.280 122.196 122.148 122.106 122.087 122.080 122.057 122.042 122.034 122.014 121.995 121.974 121.923 121.903 121.880 121.859 121.875 121.887 121.900 121.900 121.894 121.870 121.855 121.816 121.803 121.779 121.764 121.731 121.671 121.598 121.553 121.521 121.448 121.461 121.494 121.509 121.496 121.462 121.452 121.451 121.452 121.457 121.444 121.427 121.425 121.420 121.430 121.374 121.316 121.314 121.189 121.142 121.027 121.035 121.011 120.954 120.964 121.006 121.017 121.005 120.928 120.844 120.910 120.902 120.961 120.903 120.967 120.876 121.080 120.939 121.002 121.055 121.108 120.933 120.728 120.545 120.546 120.644 120.909 120.969 121.044 121.090 121.016 121.023 120.895 120.527 120.416 120.547 120.649 120.691 120.780 120.866 121.033 120.945 120.847 120.664 120.282 120.239 120.244 120.191 120.668 120.891 120.932 120.785 120.942 120.620 120.890 120.876 120.176 120.473 120.886 120.694 120.631 120.657 120.664 120.308 120.444 120.311 120.846 121.168 121.268 121.193 120.990 121.069 120.726 120.708 120.515 120.733 120.887 120.953 120.590 120.430 120.606 120.436 120.461 120.371 120.473 120.477 120.389 120.384 120.421 120.286 120.352 120.397 120.314 120.433 120.457 120.416 120.350 120.331 120.330 120.259 120.268 120.282 120.170 120.158 120.214 120.143 120.218 120.274 120.263 120.230 120.200 120.220 120.246 120.183 120.272 120.243 120.246 120.219 120.222 120.211 120.191 120.189 120.215 120.227 120.235 120.271 120.350 120.437 120.482 120.385 120.475 120.575 120.699 120.800 120.800 121.055 121.563 122.521 122.049 121.603 121.392 121.407 121.422 121.444 121.488 121.449 121.435 121.411
122.686 122.641 122.652 122.654 122.581 122.597 122.596 122.611 122.547 122.523 122.575 122.514 122.549 122.460 122.451 122.555 122.522 122.446 122.552 122.551 122.505 122.508 122.436 122.515 122.547 122.581 122.540 122.506 122.489 122.480 122.478 122.468 122.416 122.368 122.377 122.445 122.493 122.479 122.454 122.487 122.491 122.455 122.432 122.478 122.493 122.471 122.503 122.540 122.579 122.597 122.628 122.632 122.632 122.643 122.653 122.667 122.666 122.691 122.677 122.644 122.619 122.622 122.602 122.613 122.662 122.650 122.635 122.643 122.630 122.619 122.627 122.624 122.610 122.569 122.594 122.588 122.584 122.622 122.600 122.600 122.595 122.591 122.622 122.595 122.574 122.567 122.550 122.522 122.511 122.502 122.496 122.519 122.520 122.544 122.574 122.349 120.459 120.284 122.070 122.658 122.669 122.668 122.662 122.626 122.418 121.597 119.964 120.993 122.410 122.625 122.655 122.698 122.673 122.415 121.986 120.215 121.713 122.558 122.512 122.448 122.395 122.354 122.337 122.302 122.236 122.243 122.219 122.228 122.251 122.239 122.228 122.234 122.203 122.224 122.227 122.260 122.240 122.088 122.027 122.245 122.254 122.308 122.338 122.368 122.349 122.334 122.334 122.305 122.301 122.280 122.283 122.279 122.251 122.267 122.249 122.262 122.225 122.260 122.266 122.292 122.287 122.275 122.299 122.360 122.417 122.386 122.277 122.180 122.116 122.080 122.066 122.053 122.030 121.999 122.011 121.993 121.982 121.942 121.910 121.889 121.883 121.855 121.848 121.850 121.855 121.861 121.849 121.846 121.785 121.781 121.744 121.743 121.713 121.688 121.622 121.519 121.546 121.520 121.433 121.468 121.497 121.504 121.501 121.459 121.451 121.458 121.465 121.443 121.449 121.409 121.429 121.361 121.361 121.284 121.244 121.260 121.201 121.178 121.104 121.006 120.954 121.005 120.884 120.909 121.020 120.939 120.896 120.950 120.855 120.857 120.915 120.940 121.048 120.941 121.084 121.075 121.085 121.188 121.171 121.160 121.073 120.853 120.592 120.492 120.901 121.086 121.098 121.086 121.097 120.949 120.915 120.630 120.367 120.743 121.013 120.918 120.989 120.911 120.903 121.043 121.123 120.917 120.406 120.224 120.352 120.688 121.086 121.031 120.955 120.773 120.521 120.836 120.749 120.527 120.103 120.622 120.844 120.707 120.338 120.753 120.367 120.402 120.484 120.263 120.795 121.047 121.251 121.226 120.444 120.411 120.460 120.461 120.499 120.429 120.413 120.409 120.442 120.708 120.805 120.612 120.477 120.457 120.373 120.366 120.348 120.477 120.321 120.353 120.444 120.415 120.330 120.467 120.410 120.374 120.296 120.304 120.227 120.226 120.249 120.258 120.185 120.151 120.157 120.204 120.251 120.233 120.188 120.191 120.178 120.234 120.252 120.202 120.249 120.219 120.256 120.213 120.193 120.173 120.226 120.236 120.243 120.234 120.258 120.294 120.377 120.305 120.331 120.466 120.617 120.650 120.689 120.811 120.886 121.099 121.605 122.534 122.207 121.738 121.398 121.395 121.415 121.452 121.451 121.416 121.403 121.401
122.653 122.638 122.636 122.580 122.576 122.629 122.609 122.578 122.487 122.524 122.528 122.516 122.539 122.434 122.454 122.543 122.515 122.425 122.537 122.510 122.500 122.485 122.458 122.447 122.455 122.536 122.525 122.536 122.487 122.420 122.372 122.359 122.391 122.438 122.452 122.382 122.354 122.371 122.387 122.430 122.458 122.448 122.475 122.451 122.465 122.450 122.466 122.508 122.555 122.580 122.607 122.620 122.624 122.624 122.636 122.639 122.639 122.637 122.643 122.628 122.596 122.585 122.559 122.545 122.600 122.629 122.632 122.656 122.658 122.637 122.634 122.619 122.598 122.589 122.580 122.566 122.573 122.583 122.582 122.610 122.584 122.584 122.606 122.596 122.581 122.573 122.548 122.528 122.532 122.494 122.471 122.469 122.481 122.529 122.560 122.610 122.411 120.483 120.244 122.305 122.715 122.741 122.536 122.295 121.889 120.080 120.978 122.507 122.604 122.605 122.602 122.594 122.612 122.582 122.318 120.755 120.468 122.514 122.516 122.484 122.420 122.366 122.342 122.288 122.254 122.268 122.260 122.262 122.246 122.204 122.244 122.233 122.251 122.212 122.211 122.264 122.189 121.964 122.175 122.270 122.335 122.366 122.410 122.417 122.380 122.366 122.344 122.301 122.305 122.302 122.292 122.274 122.252 122.259 122.262 122.271 122.273 122.281 122.287 122.301 122.304 122.284 122.317 122.397 122.431 122.399 122.300 122.177 122.104 122.061 122.041 122.031 122.014 121.994 121.980 121.960 121.941 121.921 121.897 121.883 121.869 121.840 121.819 121.817 121.823 121.817 121.789 121.729 121.714 121.701 121.686 121.679 121.665 121.668 121.606 121.497 121.482 121.454 121.479 121.480 121.488 121.487 121.471 121.478 121.456 121.465 121.467 121.457 121.462 121.452 121.375 121.440 121.397 121.356 121.265 121.177 121.114 121.062 121.010 120.986 120.995 120.931 120.988 120.837 120.841 120.847 120.848 120.928 120.968 120.980 120.987 120.859 120.973 121.043 121.049 121.104 121.052 121.024 121.108 121.105 121.027 120.940 120.763 120.444 120.725 121.019 120.983 120.931 121.137 120.978 120.670 120.461 120.392 121.001 121.096 121.115 120.988 121.102 120.780 120.937 121.123 121.095 120.545 120.214 120.458 120.964 121.029 120.710 120.627 120.542 120.651 120.808 120.391 120.048 120.655 120.701 120.720 120.337 120.293 120.429 120.125 120.878 121.088 120.849 120.322 120.872 120.852 120.651 120.703 121.057 120.851 121.066 120.972 120.618 120.394 120.584 120.680 120.623 120.861 120.716 120.496 120.472 120.431 120.398 120.419 120.430 120.361 120.505 120.464 120.353 120.458 120.507 120.460 120.344 120.328 120.265 120.242 120.300 120.341 120.226 120.138 120.187 120.262 120.240 120.184 120.219 120.230 120.225 120.219 120.247 120.278 120.221 120.266 120.233 120.244 120.205 120.183 120.201 120.216 120.194 120.213 120.203 120.224 120.268 120.240 120.310 120.330 120.434 120.708 120.565 120.581 120.699 120.775 121.115 121.649 122.358 122.305 121.821 121.454 121.394 121.407 121.416 121.398 121.395 121.375 121.376
122.633 122.656 122.634 122.579 122.575 122.583 122.568 122.544 122.450 122.504 122.508 122.551 122.473 122.433 122.512 122.550 122.483 122.403 122.506 122.491 122.502 122.473 122.522 122.540 122.420 122.418 122.483 122.529 122.498 122.439 122.448 122.423 122.465 122.412 122.418 122.463 122.470 122.430 122.375 122.403 122.364 122.353 122.439 122.471 122.400 122.401 122.464 122.475 122.529 122.558 122.547 122.575 122.593 122.591 122.608 122.602 122.615 122.595 122.600 122.588 122.570 122.573 122.580 122.558 122.540 122.580 122.610 122.632 122.640 122.646 122.629 122.605 122.595 122.576 122.603 122.597 122.561 122.593 122.590 122.573 122.565 122.591 122.594 122.567 122.562 122.577 122.563 122.546 122.517 122.464 122.502 122.502 122.512 122.487 122.531 122.592 122.642 122.391 120.338 120.314 122.250 122.481 122.296 122.104 120.585 120.783 122.508 122.599 122.598 122.579 122.552 122.523 122.543 122.584 122.547 121.829 119.967 122.120 122.544 122.508 122.448 122.391 122.359 122.346 122.294 122.309 122.295 122.276 122.249 122.266 122.274 122.298 122.323 122.314 122.222 122.152 121.970 122.035 122.244 122.347 122.394 122.410 122.470 122.441 122.392 122.371 122.357 122.326 122.317 122.309 122.315 122.307 122.294 122.299 122.303 122.303 122.318 122.306 122.314 122.323 122.317 122.300 122.353 122.435 122.428 122.398 122.321 122.184 122.090 122.045 122.016 122.003 121.991 121.978 121.945 121.932 121.921 121.899 121.878 121.859 121.855 121.833 121.817 121.790 121.777 121.781 121.733 121.705 121.659 121.642 121.641 121.630 121.600 121.613 121.547 121.513 121.472 121.473 121.466 121.469 121.473 121.476 121.471 121.477 121.478 121.486 121.448 121.452 121.451 121.399 121.426 121.397 121.374 121.356 121.300 121.207 121.204 121.161 121.065 121.005 120.977 120.986 120.920 120.984 120.895 120.994 121.055 121.027 120.991 120.951 120.875 120.846 120.842 120.908 121.016 121.156 121.161 120.864 121.061 121.100 121.136 121.176 120.945 120.574 120.425 120.668 120.549 120.463 120.498 120.451 120.343 120.375 120.732 121.015 121.061 121.016 121.027 121.090 120.728 120.978 121.040 120.819 120.463 120.238 120.739 120.928 121.022 120.944 120.631 120.865 120.367 120.362 120.001 120.106 120.848 120.618 120.595 120.559 120.123 120.112 120.242 120.945 121.154 121.009 120.443 120.325 120.707 121.066 121.066 121.144 121.106 120.982 120.590 120.621 120.466 120.587 120.550 120.513 120.556 120.503 120.415 120.403 120.420 120.320 120.414 120.343 120.439 120.465 120.404 120.337 120.499 120.471 120.478 120.349 120.445 120.275 120.220 120.223 120.200 120.204 120.262 120.202 120.255 120.279 120.197 120.274 120.301 120.304 120.297 120.213 120.256 120.236 120.288 120.246 120.240 120.216 120.197 120.218 120.220 120.201 120.216 120.197 120.222 120.195 120.227 120.249 120.298 120.467 120.604 120.674 120.644 120.644 120.815 121.096 121.656 122.229 122.270 121.760 121.455 121.400 121.428 121.413 121.391 121.374 121.357 121.348
122.662 122.662 122.645 122.606 122.591 122.596 122.558 122.492 122.460 122.491 122.548 122.511 122.424 122.482 122.514 122.499 122.470 122.414 122.493 122.457 122.499 122.456 122.527 122.515 122.461 122.397 122.461 122.481 122.497 122.440 122.492 122.461 122.470 122.426 122.461 122.396 122.487 122.487 122.444 122.483 122.494 122.439 122.348 122.395 122.417 122.384 122.408 122.469 122.481 122.484 122.523 122.540 122.530 122.549 122.562 122.559 122.577 122.566 122.564 122.529 122.529 122.535 122.536 122.552 122.544 122.537 122.559 122.581 122.590 122.607 122.624 122.592 122.581 122.583 122.599 122.561 122.575 122.564 122.569 122.571 122.584 122.596 122.601 122.574 122.581 122.560 122.558 122.541 122.509 122.458 122.511 122.483 122.518 122.502 122.513 122.541 122.604 122.644 122.193 120.107 120.469 122.203 122.238 121.555 120.359 122.440 122.619 122.582 122.562 122.530 122.496 122.490 122.501 122.539 122.611 122.487 120.400 120.624 122.474 122.538 122.494 122.449 122.444 122.428 122.380 122.374 122.380 122.364 122.359 122.380 122.385 122.266 121.757 120.665 120.324 120.506 121.696 122.304 122.385 122.425 122.444 122.445 122.472 122.470 122.426 122.386 122.363 122.340 122.330 122.339 122.344 122.332 122.325 122.323 122.308 122.308 122.322 122.323 122.326 122.338 122.324 122.332 122.412 122.457 122.410 122.356 122.285 122.171 122.075 122.029 122.002 121.987 121.968 121.952 121.934 121.910 121.890 121.886 121.879 121.843 121.837 121.828 121.806 121.787 121.760 121.722 121.707 121.680 121.635 121.621 121.611 121.585 121.566 121.565 121.495 121.491 121.486 121.472 121.454 121.472 121.479 121.489 121.470 121.460 121.456 121.441 121.457 121.466 121.464 121.437 121.446 121.481 121.385 121.280 121.238 121.226 121.148 121.124 121.139 121.038 120.945 120.933 120.961 121.046 120.976 121.105 120.985 120.981 120.974 120.819 120.849 120.973 120.814 120.652 120.746 120.859 120.971 120.794 120.843 121.017 121.109 121.115 121.102 120.801 120.634 120.413 120.703 120.666 120.848 120.929 120.533 120.609 121.058 120.961 121.019 120.880 120.947 121.057 120.706 121.041 120.992 120.912 120.438 120.246 120.526 120.633 120.900 120.891 120.806 120.815 120.760 120.848 120.376 120.024 120.413 120.537 120.560 120.560 120.739 120.670 120.163 120.698 121.117 121.064 120.861 120.807 121.176 121.083 120.967 120.901 121.026 120.909 120.626 120.498 120.607 120.523 120.571 120.445 120.536 120.471 120.556 120.384 120.440 120.307 120.383 120.345 120.449 120.506 120.426 120.328 120.495 120.378 120.382 120.381 120.424 120.369 120.206 120.230 120.295 120.309 120.319 120.198 120.163 120.211 120.188 120.220 120.120 120.121 120.211 120.196 120.297 120.263 120.250 120.258 120.227 120.207 120.204 120.216 120.185 120.186 120.184 120.188 120.159 120.173 120.192 120.230 120.339 120.334 120.402 120.581 120.565 120.674 120.804 121.041 121.515 122.255 122.120 121.649 121.416 121.417 121.440 121.429 121.404 121.378 121.345 121.339
122.651 122.660 122.643 122.599 122.598 122.585 122.483 122.518 122.494 122.471 122.555 122.499 122.352 122.490 122.514 122.479 122.431 122.448 122.527 122.434 122.489 122.481 122.547 122.452 122.455 122.461 122.449 122.422 122.503 122.468 122.501 122.464 122.483 122.443 122.510 122.427 122.466 122.495 122.433 122.435 122.523 122.507 122.427 122.325 122.399 122.421 122.380 122.387 122.414 122.452 122.482 122.495 122.490 122.512 122.510 122.504 122.517 122.523 122.523 122.507 122.507 122.513 122.541 122.554 122.525 122.526 122.531 122.556 122.581 122.575 122.598 122.582 122.575 122.599 122.591 122.565 122.571 122.545 122.546 122.573 122.602 122.607 122.602 122.583 122.578 122.559 122.556 122.531 122.515 122.439 122.460 122.474 122.458 122.471 122.508 122.519 122.567 122.627 122.614 121.975 120.121 120.084 120.522 120.278 122.073 122.670 122.614 122.556 122.514 122.495 122.487 122.469 122.474 122.493 122.551 122.638 122.006 119.897 121.743 122.556 122.548 122.516 122.503 122.492 122.471 122.472 122.471 122.479 122.494 122.439 122.104 120.427 119.823 120.410 121.234 120.401 120.078 121.882 122.460 122.474 122.461 122.466 122.484 122.498 122.464 122.413 122.384 122.349 122.331 122.356 122.376 122.360 122.346 122.337 122.315 122.330 122.332 122.329 122.345 122.346 122.342 122.401 122.465 122.443 122.335 122.248 122.189 122.126 122.065 122.028 121.995 121.978 121.960 121.945 121.926 121.903 121.889 121.865 121.858 121.841 121.833 121.828 121.809 121.785 121.678 121.686 121.687 121.639 121.615 121.594 121.579 121.569 121.540 121.555 121.505 121.521 121.508 121.467 121.438 121.463 121.453 121.457 121.477 121.470 121.473 121.480 121.482 121.460 121.469 121.467 121.504 121.452 121.349 121.338 121.283 121.234 121.213 121.077 121.047 120.982 120.959 121.046 120.999 120.940 120.959 120.963 120.953 120.906 120.888 120.875 121.016 120.926 120.813 120.855 120.896 120.913 120.925 120.718 120.641 120.982 120.957 121.130 121.118 121.049 120.929 120.678 120.885 121.002 121.040 120.953 120.582 120.576 120.997 120.967 120.828 121.071 121.010 120.918 120.730 120.901 121.044 120.958 120.449 120.385 120.546 120.613 120.926 120.815 120.744 120.731 120.773 120.603 120.143 119.973 120.392 120.958 120.898 120.528 120.714 120.796 120.075 120.439 120.973 120.792 120.926 120.978 120.741 120.952 121.172 120.996 121.015 120.724 120.581 120.394 120.420 120.453 120.439 120.378 120.410 120.511 120.504 120.445 120.397 120.368 120.424 120.318 120.370 120.412 120.436 120.353 120.406 120.480 120.396 120.398 120.323 120.284 120.180 120.158 120.245 120.196 120.178 120.220 120.270 120.175 120.145 120.128 120.173 120.222 120.178 120.137 120.321 120.284 120.210 120.209 120.209 120.258 120.227 120.187 120.179 120.199 120.165 120.178 120.170 120.144 120.183 120.213 120.251 120.312 120.390 120.517 120.497 120.580 120.733 120.896 121.460 122.236 121.980 121.591 121.401 121.407 121.435 121.406 121.388 121.371 121.343 121.319
122.613 122.617 122.607 122.552 122.550 122.509 122.510 122.555 122.487 122.561 122.521 122.380 122.404 122.494 122.478 122.459 122.461 122.389 122.492 122.424 122.458 122.478 122.534 122.441 122.467 122.487 122.492 122.422 122.468 122.494 122.512 122.479 122.498 122.473 122.531 122.468 122.472 122.522 122.484 122.427 122.482 122.504 122.484 122.401 122.311 122.344 122.379 122.347 122.398 122.437 122.442 122.463 122.449 122.477 122.458 122.455 122.471 122.491 122.484 122.487 122.482 122.484 122.516 122.538 122.515 122.523 122.520 122.538 122.545 122.531 122.522 122.538 122.531 122.545 122.550 122.554 122.540 122.526 122.553 122.579 122.591 122.596 122.611 122.593 122.587 122.569 122.551 122.511 122.490 122.453 122.473 122.466 122.472 122.459 122.467 122.487 122.538 122.612 122.667 122.636 122.284 121.723 121.619 122.240 122.649 122.641 122.610 122.567 122.511 122.476 122.468 122.460 122.452 122.457 122.483 122.549 122.561 120.857 120.038 122.247 122.651 122.589 122.570 122.549 122.526 122.516 122.504 122.535 122.478 122.048 120.291 120.338 122.229 122.468 122.278 122.092 120.777 120.186 122.263 122.614 122.514 122.484 122.509 122.495 122.452 122.434 122.412 122.398 122.396 122.392 122.400 122.416 122.419 122.409 122.398 122.369 122.396 122.383 122.388 122.394 122.400 122.463 122.481 122.415 122.263 122.161 122.106 122.078 122.051 122.019 121.987 121.966 121.957 121.930 121.910 121.907 121.891 121.863 121.846 121.822 121.816 121.805 121.775 121.699 121.660 121.682 121.670 121.655 121.618 121.605 121.572 121.564 121.549 121.551 121.501 121.518 121.508 121.493 121.468 121.444 121.437 121.451 121.460 121.444 121.437 121.441 121.468 121.475 121.494 121.496 121.461 121.430 121.428 121.363 121.302 121.275 121.099 121.075 121.082 121.050 121.079 121.013 121.072 120.978 120.990 120.833 120.883 120.945 120.908 120.948 121.064 120.820 121.033 121.134 120.925 121.121 121.060 120.883 120.603 120.648 121.017 121.095 121.204 121.042 120.949 120.704 121.015 121.111 121.061 120.977 120.551 120.492 120.852 120.998 120.919 120.906 120.989 120.930 120.472 120.593 120.913 121.162 120.487 120.824 121.005 120.560 120.520 121.000 120.716 120.848 120.717 120.314 119.988 120.122 120.230 120.465 120.270 120.092 120.724 120.628 120.123 120.598 121.140 121.246 121.192 120.993 121.024 120.610 121.007 120.912 120.959 120.455 120.490 120.512 120.555 120.514 120.543 120.514 120.409 120.442 120.409 120.330 120.346 120.425 120.322 120.392 120.335 120.397 120.331 120.423 120.442 120.410 120.451 120.409 120.250 120.149 120.253 120.265 120.230 120.292 120.320 120.343 120.328 120.267 120.261 120.137 120.269 120.358 120.324 120.220 120.242 120.386 120.271 120.266 120.246 120.287 120.248 120.198 120.203 120.176 120.156 120.158 120.184 120.198 120.169 120.231 120.295 120.334 120.325 120.423 120.457 120.554 120.754 120.975 121.512 122.197 121.855 121.442 121.384 121.407 121.428 121.409 121.387 121.348 121.324 121.316
122.627 122.593 122.562 122.560 122.583 122.560 122.558 122.562 122.501 122.491 122.396 122.334 122.461 122.496 122.428 122.479 122.398 122.413 122.498 122.401 122.430 122.475 122.483 122.426 122.470 122.479 122.529 122.458 122.410 122.487 122.501 122.506 122.508 122.495 122.535 122.501 122.449 122.545 122.534 122.487 122.439 122.469 122.457 122.446 122.405 122.304 122.363 122.396 122.343 122.370 122.417 122.429 122.435 122.443 122.408 122.417 122.461 122.478 122.460 122.470 122.480 122.468 122.486 122.499 122.477 122.479 122.446 122.472 122.504 122.501 122.472 122.490 122.490 122.499 122.511 122.518 122.516 122.537 122.537 122.549 122.570 122.580 122.597 122.572 122.565 122.551 122.527 122.531 122.516 122.452 122.447 122.444 122.448 122.462 122.478 122.502 122.547 122.611 122.641 122.630 122.605 122.608 122.614 122.624 122.602 122.592 122.593 122.558 122.499 122.457 122.442 122.444 122.437 122.430 122.430 122.466 122.549 122.358 120.191 120.461 122.447 122.685 122.618 122.565 122.544 122.508 122.454 122.349 121.837 120.151 120.204 122.380 122.811 122.775 122.651 122.441 122.103 120.457 120.235 121.800 122.054 122.231 122.444 122.457 122.418 122.415 122.413 122.419 122.411 122.399 122.391 122.388 122.409 122.430 122.433 122.432 122.433 122.440 122.445 122.445 122.466 122.484 122.469 122.370 122.211 122.111 122.069 122.046 122.024 122.014 122.000 121.965 121.936 121.922 121.901 121.894 121.883 121.870 121.849 121.833 121.822 121.797 121.698 121.658 121.672 121.692 121.686 121.652 121.620 121.601 121.580 121.569 121.548 121.547 121.525 121.531 121.522 121.492 121.502 121.480 121.457 121.457 121.449 121.416 121.425 121.423 121.436 121.465 121.453 121.408 121.457 121.467 121.456 121.409 121.238 121.134 121.194 121.171 121.049 120.996 121.027 121.008 120.992 121.028 120.879 120.941 121.054 121.008 120.955 121.068 120.974 121.039 121.060 121.148 121.017 121.131 121.276 121.041 120.966 120.465 120.912 121.110 121.133 121.094 121.046 120.882 121.020 121.099 121.030 120.817 120.521 120.685 121.073 121.064 121.092 120.972 120.899 120.675 120.278 120.316 120.870 120.947 120.350 120.633 120.951 120.948 120.857 120.791 120.449 120.566 120.275 120.087 120.116 120.679 120.497 120.216 120.149 120.163 120.211 120.398 120.285 120.687 121.186 121.033 121.065 121.044 121.163 120.921 120.563 120.432 120.558 120.596 120.950 120.517 120.447 120.495 120.501 120.422 120.345 120.339 120.349 120.346 120.319 120.331 120.408 120.441 120.422 120.348 120.491 120.546 120.456 120.377 120.418 120.459 120.353 120.165 120.230 120.311 120.322 120.317 120.294 120.297 120.294 120.283 120.235 120.127 120.286 120.531 120.684 120.508 120.213 120.300 120.296 120.310 120.235 120.277 120.249 120.192 120.229 120.185 120.151 120.156 120.179 120.197 120.186 120.193 120.248 120.307 120.370 120.427 120.505 120.611 120.746 120.930 121.508 122.135 121.716 121.426 121.408 121.468 121.422 121.411 121.379 121.348 121.311 121.297
